 -2.95532e-01 -1.07154e-02 -3.98484e-01
  8.27009e-01  3.93258e-02 -3.81397e-01
  7.53943e-01  2.63828e-01 -6.10448e-02
 -3.02139e-01  1.83320e-01  3.51740e-01
 -3.50724e-03 -1.71335e-01 -3.59950e-01
 -1.99378e-01  3.56234e-01  1.52021e-01
 -3.40852e-01 -2.22857e-01 -1.16609e-01
  6.89789e-01  1.34387e-01 -3.79394e-01
 -3.11247e-01  3.24016e-01  2.10548e-01
  5.96290e-01  3.84781e-01 -4.85596e-02
 -6.29574e-01 -3.02286e-02 -4.04098e-01
  8.58427e-01 -4.42407e-01 -7.93688e-02
 -4.99551e-01 -1.27010e-01  3.72973e-01
  1.79430e-01  3.88512e-01  3.68095e-02
 -6.32918e-01  3.81885e-01  1.14798e-01
  7.97145e-01  1.12794e-01 -3.81831e-01
  9.13194e-01  4.31415e-01 -2.68267e-02
  2.82327e-01 -2.51224e-01 -1.38174e-03
 -1.00086e+00  3.03831e-01 -1.75863e-02
  8.80994e-01 -1.52769e-01 -4.23893e-01
 -2.05339e-01  2.12295e-01  1.41968e-01
 -8.39507e-01 -2.72742e-02  3.85094e-01
 -9.97731e-01 -1.07812e-01 -3.47654e-01
 -9.18094e-01 -1.79170e-03  2.47034e-01
  3.16778e-01 -3.90726e-01  4.71552e-02
 -6.25917e-01  1.86477e-02 -4.03193e-01
  2.03363e-01 -7.45541e-02 -3.81015e-01
 -6.07133e-01 -1.31973e-02 -4.05799e-01
 -1.74500e-01 -3.85309e-01 -9.62799e-02
 -1.72098e-02 -1.77526e-01  1.85581e-01
  8.42230e-01  9.95705e-02 -2.47742e-01
  3.57962e-01  9.11331e-02 -2.46109e-01
  2.59733e-02  3.86541e-01 -2.88052e-02
  4.33141e-01  7.61767e-02  2.47718e-01
  6.14930e-01 -3.24285e-01  2.01770e-01
 -7.91462e-01 -2.56870e-01  4.52523e-02
  5.85054e-01  1.84095e-01  3.51550e-01
  9.15069e-01  1.04237e-01  3.74548e-01
 -8.62703e-01  1.18062e-01  3.72592e-01
  4.59548e-01 -2.42282e-01 -8.12790e-02
  2.55106e-01 -3.68413e-01 -1.35614e-01
  2.19535e-01  2.52201e-01 -9.47431e-02
 -1.00230e+00  1.13867e-01  3.55345e-01
  7.60980e-01 -1.91764e-01  1.81061e-01
  1.30537e-01  3.83686e-01  1.00143e-01
  4.21408e-01 -3.40487e-01 -1.92459e-01
  4.38920e-01  3.54731e-01 -1.72539e-01
 -9.21747e-01  2.14947e-01 -3.33759e-01
 -8.71855e-01  2.20289e-01 -1.41705e-01
 -4.62661e-01  2.80700e-01  2.66037e-01
  3.67368e-01  2.63620e-01 -5.95466e-02
  3.24078e-01 -1.26132e-01  3.59126e-01
  2.13133e-01 -2.91496e-02  2.49952e-01
  8.29131e-01  3.74033e-01  1.64408e-01
  2.95636e-01  2.22458e-01  3.20710e-01
  8.66106e-01  2.41139e-01  1.04930e-01
  1.62716e-01 -2.54675e-01 -8.33585e-02
 -7.08113e-01 -2.46441e-01 -3.11525e-01
 -9.23782e-01 -1.25667e-01 -2.29219e-01
 -5.23903e-01  1.47365e-01  3.67092e-01
 -8.01994e-01  1.85826e-01 -1.87514e-01
 -7.85798e-01 -2.07864e-01 -1.61012e-01
  4.32859e-01  3.85891e-01  1.04766e-01
  2.03042e-01  1.39540e-01 -3.73990e-01
 -9.49447e-01  1.72419e-01 -3.56022e-01
 -2.76887e-01  1.81435e-01 -2.06134e-01
 -6.81370e-01 -3.93646e-01  7.34583e-03
  4.42295e-02  2.62868e-01 -6.32658e-02
  9.14476e-01  3.99124e-01 -5.35792e-03
  8.74280e-01 -2.71368e-01 -3.62569e-01
  9.00733e-01  1.54623e-01  2.28488e-01
 -6.46184e-01  3.50695e-01 -1.73787e-01
 -9.42147e-01 -2.84920e-01  2.66207e-01
  8.28293e-01 -2.31249e-01 -3.13919e-01
  6.52283e-01  5.30724e-02 -2.54947e-01
 -1.91807e-02  2.41042e-01 -1.10225e-01
  4.20100e-01  1.40325e-02 -2.57594e-01
  6.73527e-02 -4.28821e-02  2.52727e-01
 -3.33831e-01 -1.97992e-03 -2.64755e-01
  6.07981e-02 -2.05978e-01 -3.28487e-01
  8.32165e-01 -1.83966e-01  4.08886e-01
 -2.09238e-01  1.52269e-01 -3.67066e-01
 -2.37134e-01  7.84567e-02 -3.83878e-01
 -7.67336e-01  3.59258e-01 -1.75087e-01
  2.68974e-01 -3.75687e-01 -8.03615e-02
  1.91753e-01  1.93584e-01 -3.38338e-01
 -1.03252e-01  1.58594e-01 -3.70134e-01
  9.19636e-01  7.50046e-03  4.37955e-01
  2.14916e-01  1.82653e-01  1.96202e-01
  1.49179e-01  1.95564e-01  3.47037e-01
  7.66707e-01 -6.40649e-02  3.77125e-01
  2.58228e-01  3.95363e-01  5.98291e-02
 -3.61210e-01 -2.50475e-02 -3.95258e-01
  5.46877e-01  3.61687e-01 -1.63997e-01
 -8.91870e-01 -3.52292e-01  1.78148e-01
  2.94685e-01 -3.51491e-01  1.46848e-01
 -3.53738e-01  3.44698e-01 -2.01687e-01
  2.00841e-02  2.85245e-01  2.71289e-01
  1.18917e-01  2.26350e-01 -1.29071e-01
 -7.65481e-01 -1.02479e-01 -2.36840e-01
  4.86703e-01 -2.93714e-01  2.63281e-01
 -2.80420e-01  1.15190e-01  2.25971e-01
  3.50510e-01 -7.41369e-03  2.52242e-01
 -1.52753e-01 -3.68074e-01  9.85006e-02
 -9.17869e-02 -1.74247e-01 -3.48281e-01
  8.88190e-01 -1.75835e-01 -4.27929e-01
 -4.79058e-01  2.42676e-01 -8.72027e-02
  6.37513e-01  2.47285e-01  2.95090e-01
  7.10661e-01  4.50324e-02  2.42536e-01
  5.09650e-01  1.55607e-01  3.62663e-01
 -8.36428e-01 -1.48267e-01 -2.08621e-01
 -9.94267e-01 -3.20133e-01 -1.36940e-01
 -3.98649e-01 -2.01605e-01  3.28982e-01
  5.64246e-01  2.27740e-01  1.13046e-01
 -1.83217e-01  5.11493e-02  3.87276e-01
  1.30202e-01  2.65699e-01 -5.23839e-02
  4.75265e-02 -3.95636e-01  4.44588e-02
  7.24529e-01 -2.10273e-02  3.92515e-01
 -8.57588e-01  2.82232e-01 -2.69802e-01
  2.32339e-01  9.78185e-02 -2.51402e-01
 -9.04886e-01 -2.66910e-01 -1.71618e-03
  2.42331e-01  3.39251e-02 -3.98116e-01
 -9.99702e-01 -2.75748e-01 -2.30479e-02
  9.97302e-02  2.57723e-01 -1.27299e-02
 -4.11187e-01  3.78722e-01  9.37051e-02
 -9.64504e-01 -5.29064e-02  2.55952e-01
  6.73819e-01 -7.64127e-02  2.43657e-01
 -1.21559e-01  8.73049e-02 -2.49942e-01
 -9.12308e-01 -2.67348e-01 -1.88115e-02
 -6.50202e-01  3.20787e-02  2.51673e-01
 -7.67840e-01 -1.09471e-01  2.36951e-01
  2.26015e-01  2.39450e-01 -1.26114e-01
  1.98789e-01 -2.59995e-01  7.11638e-04
 -3.26483e-01  3.48728e-01  1.70014e-01
  4.01921e-01 -2.56944e-02 -4.06592e-01
  9.20993e-01  2.88021e-02  3.07873e-01
 -2.68605e-01 -2.46677e-01 -5.68429e-02
  8.06701e-01 -1.60174e-01 -2.03946e-01
  7.27638e-01  2.17600e-01  1.45362e-01
 -3.29340e-01  1.16189e-01 -3.79729e-01
  8.78749e-01  2.12658e-01  1.41522e-01
  1.34451e-01  1.05372e-01  2.38396e-01
 -2.99815e-01 -3.90551e-01  6.95125e-02
  7.23523e-01 -1.62657e-01  1.86310e-01
  4.76178e-02  8.84975e-02 -3.89438e-01
  7.73882e-01 -1.12169e-01  2.23925e-01
  9.27322e-01  1.73021e-01 -3.59265e-01
  3.64777e-04  2.68142e-01  2.30051e-02
 -8.14701e-01  2.71338e-01 -3.76453e-02
  2.77364e-01 -2.49001e-01  2.80393e-02
 -2.70311e-01 -2.97628e-01 -2.47211e-01
  9.30475e-01  3.76635e-01 -1.35129e-01
 -9.19051e-01  2.67097e-01  2.74923e-01
  2.38834e-01  3.84860e-01 -7.04972e-02
  9.12987e-01 -2.92200e-01 -9.91181e-04
 -6.22251e-01  1.50124e-01 -3.69753e-01
 -8.73457e-01 -1.97092e-01 -1.80182e-01
  8.28795e-02  2.21378e-01 -3.31267e-01
  3.87154e-01 -2.17674e-01 -1.33706e-01
  5.31417e-01 -3.53698e-02  2.59505e-01
  6.13172e-01  1.49246e-01  2.02267e-01
 -4.63713e-01  3.89978e-01 -1.74422e-02
  4.75419e-01 -1.72201e-01  1.85643e-01
 -5.75160e-01  2.34948e-01  1.31870e-01
 -9.36844e-01  1.26898e-01  2.26387e-01
  4.92430e-01  2.38004e-01 -1.15358e-01
  8.97628e-01 -4.41990e-01  2.10625e-02
  7.74346e-01  9.70058e-02  3.79283e-01
  9.28000e-01  3.48965e-01 -2.26764e-01
  2.95659e-01  2.50864e-01 -3.03712e-01
  2.30586e-02 -3.59919e-01 -1.73110e-01
 -8.66268e-01  3.80412e-01 -9.81097e-02
  3.13121e-01 -7.97500e-02  3.80290e-01
  7.57767e-01 -2.35706e-01  9.10016e-02
 -7.28571e-02  1.15254e-01 -3.85664e-01
  7.47817e-01  3.92487e-01 -6.59277e-02
 -6.16566e-01 -4.36466e-02 -3.89822e-01
 -7.41449e-01 -3.52258e-01  1.42958e-01
 -9.99027e-01 -3.29505e-01  1.62527e-01
  7.69606e-01 -2.02960e-01 -1.72151e-01
  3.05288e-02 -3.89679e-01  5.91619e-02
  3.67816e-01  2.78786e-01 -2.89049e-01
 -7.23550e-02 -2.94380e-01  2.55375e-01
  3.54664e-01 -3.92534e-01 -7.23001e-02
 -6.19433e-01  1.95188e-01 -3.36405e-01
 -8.42372e-02 -2.33363e-01  1.25393e-01
  7.07534e-01  2.52630e-01 -3.09622e-01
  3.06703e-01  1.77418e-01  3.53953e-01
  6.11079e-01  1.31118e-01 -3.84623e-01
  7.72547e-01 -3.57197e-02  3.88339e-01
  2.53133e-01  2.24967e-01 -1.26249e-01
 -5.65357e-01  2.62722e-01 -4.22278e-02
  9.20976e-01  2.98246e-01 -1.39550e-01
 -9.41369e-01  1.17012e-01 -2.40785e-01
 -7.32035e-01 -2.06276e-01  1.58661e-01
 -3.41076e-02 -9.26425e-02 -2.49955e-01
  4.84469e-01 -3.76543e-01  1.11962e-01
 -4.10917e-01  2.55418e-02  2.47647e-01
  1.11975e-01  1.02049e-01  3.68847e-01
 -9.79425e-01 -3.68981e-01  1.16701e-01
  2.68537e-01  3.49306e-01 -1.73174e-01
  4.39382e-01 -3.77507e-02  2.61997e-01
  7.81768e-01  2.20603e-01 -3.21863e-01
 -6.76311e-01 -1.97817e-01 -1.79407e-01
 -1.68095e-01  3.91286e-01 -1.14794e-02
  7.19903e-01 -2.03728e-01 -3.35103e-01
  3.79624e-01 -2.38809e-01 -3.01872e-01
  5.68553e-01 -2.52342e-01 -5.24905e-02
 -9.18717e-02 -1.43964e-01 -3.76875e-01
  5.39153e-01  2.07893e-01  1.55630e-01
 -9.71448e-01  1.14532e-01 -3.77717e-01
  3.23908e-01 -1.89019e-01  1.61911e-01
 -9.97589e-01  2.30519e-01  2.97142e-01
 -4.10852e-01  1.61337e-01  2.12822e-01
  7.17629e-01  1.00092e-01 -2.43629e-01
 -9.80338e-01 -6.87063e-02 -3.77149e-01
 -8.43313e-02 -2.82258e-01  2.71463e-01
 -8.69083e-01  9.43074e-02 -2.59460e-01
 -9.66277e-01  4.30944e-02 -2.57169e-01
  5.78295e-01 -1.74959e-01 -2.01094e-01
 -6.28640e-01  1.39058e-01 -2.23428e-01
 -8.19629e-01  1.32796e-01  3.69539e-01
  6.24366e-02 -1.89012e-01  1.72616e-01
 -9.99378e-01  2.40042e-01 -2.36733e-01
  3.89368e-01  1.95731e-01  3.34961e-01
  9.39417e-02  9.94019e-02  3.74933e-01
  1.29619e-01  1.69848e-01  3.59596e-01
 -6.85518e-01  9.54492e-02 -3.82369e-01
 -6.21554e-02  1.86913e-01  3.36305e-01
 -9.70331e-01  1.36474e-01  2.25038e-01
  1.82030e-01 -1.84038e-01  1.63471e-01
  9.33119e-01 -7.83808e-02 -3.45952e-01
 -6.21026e-01  1.80306e-01  1.72901e-01
 -2.50377e-01 -5.98341e-02 -3.94650e-01
 -9.98801e-01  3.60485e-01 -1.02600e-01
  5.79194e-01  1.49224e-01 -2.12163e-01
 -2.93985e-01  1.05697e-01  3.71271e-01
 -9.33158e-01 -3.70444e-01  9.42013e-02
  8.93289e-01  4.34196e-01  1.09479e-01
  6.63791e-01 -3.83332e-01  8.25298e-02
  4.97643e-01 -3.76254e-01  4.55609e-02
  7.82974e-01 -2.35199e-01 -3.18964e-01
 -2.96254e-01  5.06886e-02  2.48837e-01
  7.15208e-01 -1.30166e-01  2.24483e-01
  6.20101e-01 -2.33703e-01 -1.26893e-01
  7.90319e-02 -3.84168e-01 -3.87027e-02
  4.43760e-01 -7.76362e-02  3.85334e-01
 -8.49297e-01  1.62958e-02  2.53073e-01
 -8.97479e-01 -4.17711e-02  2.60157e-01
  4.66050e-01 -5.98926e-02  2.39897e-01
 -2.51638e-01  2.63745e-01  8.78957e-03
 -7.94575e-01 -2.85714e-02  2.61588e-01
  2.13715e-02  3.83888e-01  7.07633e-02
 -9.74516e-01 -1.74035e-01 -2.07281e-01
 -8.48780e-01  3.93756e-01 -9.37444e-02
  9.32248e-01  3.26388e-01 -1.35872e-01
  2.09608e-01 -1.63333e-01 -3.53648e-01
  8.64583e-01 -1.92395e-01  4.15867e-01
 -9.46040e-01 -1.05518e-01  2.30100e-01
  1.26072e-01 -6.37343e-02 -3.95428e-01
  2.02010e-01 -1.86000e-01  3.36454e-01
  9.08097e-01 -4.30658e-01  5.41155e-04
 -2.02299e-01  2.52922e-01  2.91397e-01
  6.30940e-01 -4.89274e-02 -2.54512e-01
  8.74016e-01  4.26187e-01  1.37187e-01
 -4.38837e-02 -1.40051e-01 -2.33524e-01
 -4.19397e-01 -5.12898e-03  2.47708e-01
  8.18063e-01  3.32003e-01  1.74659e-01
 -3.79418e-01 -3.49665e-01 -1.59455e-01
 -4.28580e-01 -4.44432e-02 -2.53107e-01
 -3.49240e-01 -3.72460e-01 -9.77369e-02
 -5.07715e-02 -3.96172e-01  5.10410e-03
  1.96853e-01 -2.52660e-01 -3.04229e-01
 -3.97947e-01  1.37806e-01  3.68452e-01
 -3.69275e-01 -2.30087e-02  3.88726e-01
 -2.13136e-01  3.43825e-01  1.74135e-01
 -1.97566e-02  2.73965e-01 -2.84370e-01
  5.12340e-01  1.78422e-01  1.85062e-01
  3.19914e-01 -2.43629e-01 -7.01823e-02
 -1.29318e-01  1.90850e-01  1.86639e-01
 -4.25406e-01  2.15572e-01 -3.29649e-01
  8.83171e-01 -4.12250e-01 -1.75622e-01
 -4.02663e-01  3.65394e-01  1.31978e-01
 -3.90888e-01 -2.45381e-01  5.76554e-02
  8.25858e-01 -1.12870e-01 -4.00942e-01
 -2.71204e-01  3.51625e-01 -1.79916e-01
 -6.50840e-01  9.48540e-02  3.74184e-01
 -2.59838e-01 -6.03855e-02  2.44700e-01
  5.80153e-01 -3.64979e-01  1.22266e-01
 -2.19066e-01 -2.29412e-01 -1.07002e-01
  8.58175e-01 -1.65451e-01  2.01709e-01
 -3.37375e-01  2.51675e-01 -7.70192e-02
 -8.60341e-01 -5.15789e-02 -2.61605e-01
 -1.39161e-01 -2.81321e-01  2.68679e-01
  8.86632e-01 -3.72347e-01 -2.44107e-01
  3.37003e-01 -3.68404e-02  2.58193e-01
 -7.77990e-01 -3.47073e-01  1.57700e-01
 -6.83765e-01 -1.80650e-01  1.76002e-01
 -6.99828e-01 -1.23141e-01 -3.87403e-01
 -8.80003e-01  1.32781e-01  2.20981e-01
 -5.05705e-01 -2.18436e-01  3.27836e-01
 -3.48465e-01 -1.95483e-01  1.63317e-01
 -3.20102e-01 -2.81670e-02  2.55369e-01
 -4.92264e-02  2.67659e-01 -9.29730e-03
  6.61373e-01 -2.70693e-01  2.69492e-01
  3.81494e-01  2.41072e-01 -1.23049e-01
 -2.81846e-01 -9.78848e-02  3.68780e-01
  3.65594e-01  2.67075e-01  5.11064e-02
  1.18279e-01  2.00136e-01  1.68111e-01
 -1.00601e+00 -3.40821e-01 -1.52381e-01
 -9.95132e-01  2.90337e-01  2.85189e-02
 -9.75489e-01 -1.90252e-05  3.79737e-01
  8.59145e-01 -2.44401e-01  1.00778e-01
  8.11517e-01  3.58121e-01 -1.93299e-01
  1.86574e-01 -1.10389e-01 -3.77201e-01
 -1.00403e+00 -1.29072e-01 -2.57956e-01
  3.72484e-01  4.15507e-02  3.86240e-01
 -6.03246e-01  5.53088e-02  2.41123e-01
 -7.90824e-01 -1.58233e-01  1.92194e-01
 -8.18287e-01  6.18759e-02 -3.99349e-01
 -4.15099e-01 -1.29948e-01 -2.34474e-01
 -5.47035e-01 -2.18220e-01 -1.29467e-01
  5.88396e-01  1.81973e-01 -2.07699e-01
 -2.39539e-01 -1.46541e-01  2.00281e-01
  8.40748e-01 -2.01258e-01  1.49860e-01
 -4.31681e-02  7.71217e-02 -2.51076e-01
 -2.29722e-01 -1.02449e-01 -2.44967e-01
  5.80846e-01 -2.22406e-01  1.29193e-01
 -5.71380e-01  3.67859e-01 -1.50562e-01
  9.25255e-01 -1.94158e-01 -3.39362e-01
 -9.99548e-01  2.93793e-01  1.98911e-01
  8.24020e-01 -4.31106e-01  1.02892e-01
 -6.95343e-01  2.51259e-01  3.66190e-02
  2.58814e-01 -1.29629e-01 -2.31564e-01
  8.52780e-01  3.88335e-01 -2.55096e-01
  7.90398e-01 -2.21212e-01 -3.33024e-01
  8.16586e-01 -1.36674e-01  3.95550e-01
 -7.88178e-01 -3.60504e-01  1.43507e-01
 -2.32723e-01  3.53983e-01  1.57964e-01
  3.21234e-01  3.91211e-01  9.77993e-02
 -9.35969e-01  3.68404e-01  1.30779e-01
 -1.51496e-01  3.85643e-01 -7.91210e-03
 -9.93519e-01  2.56624e-01  1.43749e-01
  3.54540e-01 -1.75765e-02 -4.01963e-01
 -1.00200e+00  2.56888e-01 -2.75565e-01
  4.05688e-01 -1.41085e-01  2.18591e-01
 -2.83160e-01 -3.25357e-03 -4.05534e-01
 -5.13147e-01  1.48877e-01 -2.15914e-01
 -1.99443e-01 -1.59453e-01 -3.52585e-01
  8.29303e-01 -3.75394e-01 -1.36933e-01
 -2.15011e-01  1.85750e-01 -1.89444e-01
  2.68987e-01 -3.84073e-01 -6.19385e-02
 -9.35836e-01 -8.57357e-02 -2.59006e-01
  4.74873e-01  3.87398e-01 -2.61264e-02
 -8.85004e-01 -2.72836e-01  2.76944e-01
 -5.98333e-02 -1.48420e-03 -2.60687e-01
  8.16177e-01 -3.62777e-01  1.26543e-01
 -5.76277e-01 -2.53507e-01 -4.53444e-02
  4.65817e-01 -3.19845e-01 -2.15321e-01
 -2.60859e-01 -1.97622e-01  3.27931e-01
  1.14483e-02  2.19286e-01 -1.62029e-01
  1.81118e-01  3.54017e-02  2.60296e-01
 -7.15935e-01 -3.25657e-01  2.22494e-01
 -7.41829e-01  1.97758e-04  2.57590e-01
 -1.81666e-01 -2.63089e-01 -5.47968e-02
 -5.66010e-02 -3.09180e-01 -2.26512e-01
 -9.91809e-01  3.53640e-01 -3.52622e-03
  5.69347e-01 -8.94688e-02  2.45627e-01
 -6.42491e-01 -3.34970e-01 -2.21298e-01
  4.20761e-01 -3.94175e-01  4.96832e-02
 -7.93458e-01 -7.96055e-02 -3.98486e-01
  7.75474e-01  2.70969e-01  2.86537e-01
 -1.09291e-01  9.35439e-02  3.83161e-01
  7.21115e-01 -2.64676e-01 -1.43951e-02
 -4.80590e-01  6.34023e-03  2.50279e-01
 -9.51492e-01  2.63469e-01 -5.89138e-02
  4.17822e-02 -3.02643e-01  2.52570e-01
  1.28676e-01  1.64872e-01  2.00617e-01
 -4.56273e-01  1.76636e-01 -3.56884e-01
  7.09045e-01  3.80145e-01 -1.26453e-01
 -1.29211e-01  2.64516e-01 -2.80760e-02
  4.44485e-01 -1.72709e-02  2.47375e-01
  9.18318e-01  7.64020e-02 -4.44134e-01
 -3.04697e-02 -2.86384e-01 -2.70985e-01
  3.02353e-01 -2.48176e-01  3.56607e-02
  9.31107e-01 -3.25882e-01 -2.31899e-02
 -8.37076e-01 -2.27201e-01  3.01898e-01
 -2.79590e-01  2.11458e-01 -1.52837e-01
  3.80598e-01 -3.21834e-01  2.17292e-01
 -9.57632e-01 -7.91912e-02  3.75766e-01
 -1.59510e-01 -2.57452e-02  3.83036e-01
 -9.39945e-01  2.85353e-01 -2.66484e-01
 -5.55502e-01 -3.77851e-01  5.83194e-02
  3.51693e-03 -1.11085e-01  3.79945e-01
  8.77979e-01  2.23875e-01  1.37880e-01
  7.20931e-01 -2.21362e-01 -1.48723e-01
  2.36779e-01  1.94773e-01  1.85849e-01
  8.33571e-01 -3.08155e-01 -2.94301e-01
 -2.30732e-01  2.29466e-01 -1.34379e-01
 -1.64463e-01 -3.13842e-01  2.34797e-01
  2.29629e-01 -3.39513e-01  1.64450e-01
 -2.99800e-01  2.46682e-01 -1.19773e-01
 -8.52270e-01 -1.78492e-01 -3.60562e-01
  6.62423e-01  2.23583e-01  3.20647e-01
  4.10973e-01  6.05169e-02 -2.62917e-01
 -6.00942e-02  2.15754e-01  1.45161e-01
 -2.27169e-01  3.58027e-01  1.58870e-01
  8.13555e-02 -2.46509e-01 -8.29392e-02
  9.07748e-01 -1.50862e-01 -4.09740e-01
  6.44309e-01 -1.11500e-01 -2.42705e-01
  6.11071e-01 -3.88227e-01 -3.89790e-02
 -8.85807e-01 -2.23486e-01  3.15880e-01
  9.19662e-01 -2.22484e-01 -3.15230e-01
  2.00305e-01 -6.63284e-02 -2.48312e-01
  4.56707e-01 -3.88087e-01 -9.71650e-02
  5.30496e-01  1.12289e-01  2.37715e-01
 -7.04657e-01 -3.86708e-01 -9.91185e-02
  1.26666e-01  2.46644e-01  7.90297e-02
 -9.81944e-01  2.15271e-01 -1.52907e-01
 -9.10920e-01  2.59238e-01  2.81370e-01
  7.83847e-01 -2.49947e-01 -1.72377e-02
  5.19964e-01  3.64037e-01 -1.58973e-01
 -2.72074e-01 -2.67929e-03  2.52662e-01
 -1.51459e-01  1.76025e-01  3.36030e-01
 -4.60344e-01  4.15466e-02  3.76897e-01
  8.57089e-01  2.51224e-01  6.37102e-02
  8.25188e-01 -4.07873e-01 -1.33652e-02
  3.34039e-01  2.90297e-01 -2.67593e-01
 -5.78232e-01 -2.44913e-01  9.18946e-02
  4.14157e-02 -2.19551e-01 -3.28933e-01
  5.25122e-01 -8.45324e-02  2.43912e-01
 -4.71345e-01  1.94203e-02  3.84965e-01
  9.16012e-01 -3.21541e-01 -2.25764e-01
 -6.01768e-01  2.96749e-01  2.68966e-01
 -3.57056e-02 -8.49364e-02 -2.52053e-01
 -8.43109e-01 -4.13472e-03 -3.99895e-01
  6.74299e-02 -3.92946e-01 -1.98431e-02
  2.39438e-01  8.70697e-03  2.47222e-01
  9.16625e-01  1.19374e-01 -2.63722e-01
  6.48798e-01  3.94857e-01  3.95696e-02
 -5.61476e-01  1.09234e-01 -2.49724e-01
  5.93230e-01 -3.77816e-01  1.16110e-01
 -2.73379e-01 -2.22810e-01  1.23315e-01
 -1.52208e-01 -1.66436e-01 -1.93370e-01
  8.32432e-01  3.45486e-01 -3.18605e-01
  3.56967e-02 -5.60686e-02 -3.86025e-01
 -9.50679e-01 -2.64489e-01 -3.00772e-01
  1.38163e-01  2.86480e-01  2.74519e-01
  8.70257e-01  3.09524e-01 -3.50401e-01
 -9.75778e-01 -2.18062e-01  1.24865e-01
 -4.86414e-01  1.30398e-01  2.20077e-01
  1.45754e-01  2.85928e-01 -2.73843e-01
  9.31773e-01  2.72509e-01  2.03788e-01
 -9.93761e-01  1.30632e-01  3.25353e-01
 -3.76260e-01  2.24353e-01 -1.58104e-01
 -9.14301e-01  4.94987e-02  2.58130e-01
  2.19904e-01 -3.02606e-01 -2.55587e-01
  4.08813e-01  9.86628e-02  2.27259e-01
  7.44820e-01  3.87788e-01  6.13821e-02
 -8.93727e-01  3.33272e-01 -2.21841e-01
 -6.70776e-01 -2.17349e-01 -3.33107e-01
  3.59216e-01  2.10844e-01 -3.30071e-01
  5.38699e-01 -3.12726e-01  2.10191e-01
  1.17682e-01 -2.48788e-01 -8.94774e-02
  6.25950e-01  2.84571e-01 -2.69150e-01
  5.41223e-02 -3.11366e-01  2.21827e-01
  2.58443e-01 -1.38916e-01 -2.14676e-01
  1.79207e-01  2.73235e-01 -2.96834e-01
  2.76565e-01 -1.52838e-01 -2.17138e-01
 -7.24839e-01 -2.12411e-01 -3.25320e-01
  2.50959e-01 -3.71394e-01  1.04536e-01
  6.42613e-01  2.50246e-01  2.88062e-01
  2.87127e-01  1.84919e-01 -1.84169e-01
 -1.02910e-02 -3.54845e-01  1.32508e-01
 -1.00307e+00  4.07162e-02  3.38039e-01
 -6.47151e-01 -3.45972e-01  1.58482e-01
  5.04905e-01  1.18834e-01 -2.29977e-01
  7.64635e-01  1.94161e-01 -1.96732e-01
  4.91279e-01  1.54326e-01 -2.21554e-01
 -7.71055e-01 -2.91414e-01  2.47689e-01
 -1.64819e-01 -2.32503e-01  9.48505e-02
  9.27373e-01 -5.35725e-02  3.39969e-01
  4.91856e-01  3.23943e-01 -2.46289e-01
 -9.99174e-01  3.33585e-01  1.41204e-01
  2.74079e-01 -1.56717e-01  3.45738e-01
 -6.37037e-01 -3.86076e-01  3.75777e-02
 -1.06174e-01 -2.28617e-01 -1.31999e-01
  3.60806e-01  8.67351e-02 -2.60666e-01
  2.39538e-01 -2.30486e-02  3.83716e-01
  3.10907e-01  1.48467e-01 -3.62686e-01
 -7.83404e-01 -7.88250e-02  3.87300e-01
 -6.11857e-01  1.66906e-01  3.43365e-01
 -9.01403e-01  2.73555e-01 -4.62326e-03
 -9.14270e-01  2.46421e-01 -1.03137e-01
  9.08555e-01 -9.58701e-02 -4.43124e-01
  1.85319e-01  2.08355e-01  3.38323e-01
  2.77745e-01  1.64921e-01  2.08451e-01
 -9.47729e-01  1.66369e-01 -1.96238e-01
 -1.11901e-01  1.99540e-01 -1.67731e-01
 -7.26621e-01  3.18500e-01  2.15283e-01
  5.40364e-01 -8.96075e-02 -2.47577e-01
 -7.97592e-01  9.68068e-02 -3.80826e-01
  9.14404e-01  2.93882e-01  1.12744e-01
 -3.37190e-01  4.98944e-02  3.77368e-01
 -6.68652e-01  1.13636e-01  2.37173e-01
  6.18027e-01 -6.90093e-02  2.45924e-01
 -2.19344e-01  1.32246e-01  2.16648e-01
  3.16265e-01  3.33692e-01  2.20072e-01
  8.67729e-01  1.84434e-01 -4.25128e-01
 -7.39801e-01 -2.21120e-01 -1.40849e-01
  2.20427e-01 -1.09364e-01 -3.88545e-01
  2.83577e-01  1.79115e-01 -1.96252e-01
 -8.46932e-01  2.89597e-01  2.65436e-01
 -1.01861e-01 -2.98416e-01 -2.48402e-01
 -3.76818e-01  2.62798e-01  8.34092e-03
 -4.88925e-01  3.84963e-02  3.88000e-01
  3.63109e-01  3.84165e-01 -7.88533e-02
 -4.13952e-01 -1.11502e-01  2.18433e-01
 -9.59505e-01 -1.02210e-01 -3.85337e-01
 -9.81780e-01 -2.11758e-01 -1.68663e-01
  8.62016e-01  4.35486e-01 -1.37881e-01
  3.93348e-01  3.91354e-01  4.56033e-02
  4.14648e-01  2.00834e-02 -3.87438e-01
 -8.68448e-01  1.52065e-01 -2.25143e-01
  2.74031e-01 -3.77133e-01 -5.86165e-02
  9.29731e-01  3.66136e-01 -4.42791e-02
  9.29980e-01  2.05400e-01 -3.08321e-01
  9.17185e-01  1.36011e-01 -3.34429e-01
  6.19785e-01 -3.25258e-01 -2.01831e-01
  2.84593e-01 -2.06558e-01 -1.64793e-01
 -1.77960e-01 -2.47261e-02 -2.67470e-01
 -3.84329e-01  2.03965e-01  3.24558e-01
  7.55822e-01 -3.05930e-01 -2.61351e-01
  2.58398e-02 -1.47583e-01 -3.77867e-01
  5.92707e-01  2.90268e-01 -2.60531e-01
  8.45394e-01 -1.33684e-02 -4.65282e-01
  9.10639e-01 -3.46290e-01  2.48388e-01
 -5.13180e-01  1.61068e-01 -2.17318e-01
 -1.00852e+00 -1.98814e-01  2.78981e-01
  6.66422e-01  3.24562e-01 -2.29582e-01
 -4.69047e-01 -3.90699e-01 -4.27245e-02
 -9.98441e-01 -2.78616e-01  2.25609e-01
 -9.87629e-02  8.70333e-02  3.74121e-01
 -3.66095e-01 -2.59915e-01  2.30853e-02
  1.84796e-01 -2.05990e-01  3.15093e-01
  8.13595e-01  2.54292e-01 -2.92568e-01
  1.30871e-01  1.92599e-01 -1.77378e-01
 -8.48085e-01  1.68501e-01 -1.97234e-01
  7.79227e-01 -1.58448e-01  3.48558e-01
  4.33619e-01  3.78591e-01  1.12224e-01
  8.76466e-01 -4.80236e-03  2.47836e-01
  1.02124e-01 -1.29299e-01 -2.21993e-01
 -4.04254e-01 -1.92278e-01  3.45191e-01
  7.01517e-01 -8.44706e-02 -3.96366e-01
  5.29601e-01 -2.02802e-01  3.34969e-01
 -3.65630e-01 -3.16409e-01  2.37952e-01
  8.58780e-01  2.36140e-01  1.25303e-01
  3.89554e-01  3.29381e-03  2.46373e-01
 -2.41807e-01 -8.25573e-02 -3.97679e-01
 -2.15148e-01  2.59833e-01 -9.08236e-02
  3.98205e-02  3.84251e-01  7.56892e-02
 -2.92738e-01  1.39081e-01 -3.69373e-01
 -7.23156e-01 -2.71037e-02  2.48227e-01
 -5.70711e-02 -6.21970e-02 -2.52811e-01
 -3.44329e-01  3.89738e-01 -5.05496e-02
  7.20138e-01 -2.02457e-01 -1.54544e-01
  2.80175e-01 -3.79836e-01 -2.11776e-02
  3.38286e-01 -3.97730e-01 -2.76341e-02
  6.20274e-01 -1.71576e-01 -1.88583e-01
 -3.16290e-01  1.44010e-01 -3.70739e-01
  5.31802e-01 -3.53972e-01 -1.73915e-01
 -1.00526e+00  2.02050e-01 -2.69171e-01
 -9.75345e-01 -3.80593e-01  3.89118e-02
  1.74055e-01 -2.11333e-01  1.28433e-01
  8.33144e-01  4.25045e-01 -1.37450e-01
  1.74986e-01 -2.72126e-01  2.61132e-01
 -1.01795e-01  3.35261e-01 -2.26393e-01
  8.46622e-02 -2.19679e-01  1.11002e-01
  9.29143e-01  3.83623e-01  8.36948e-02
 -7.21880e-01  3.60665e-01 -1.76418e-01
  8.33227e-01 -3.17505e-01  2.22633e-01
 -5.71182e-02 -2.07945e-01  3.22216e-01
 -7.09091e-01  2.20401e-01  3.10774e-01
  3.31787e-02 -4.85313e-02  3.81863e-01
 -8.87894e-01  2.39487e-01 -1.11457e-01
  8.84318e-01  9.47903e-02  4.37403e-01
 -8.39261e-01 -2.54244e-01  2.81063e-01
  7.03681e-01 -7.64330e-02 -3.92039e-01
  9.21337e-01  3.02147e-01  1.80502e-01
  5.59409e-01  2.33615e-01 -3.27225e-01
 -5.99410e-01  6.83942e-03 -3.93126e-01
 -4.61615e-01 -7.83124e-02 -2.60735e-01
  4.69736e-01 -2.28762e-01  1.16847e-01
 -8.58755e-01  3.86132e-01  7.62453e-02
 -6.08852e-01  1.98253e-01  1.76233e-01
 -1.00750e+00 -8.19884e-02  3.08801e-01
  2.02508e-01 -2.72332e-01  2.73085e-01
 -6.78961e-01  3.92975e-01  5.90212e-02
  3.92412e-01 -2.59417e-01 -2.91243e-01
  6.02213e-01  1.48320e-01 -2.16891e-01
 -5.19279e-01 -2.33306e-02  2.59460e-01
  8.26089e-01 -1.05403e-01  3.94846e-01
  4.91979e-01 -2.57451e-01 -1.89125e-02
  3.85449e-01  6.58547e-02 -3.91136e-01
  8.33344e-01  3.31776e-01 -2.04269e-01
 -5.96832e-01  2.36150e-01  1.17668e-01
  3.58569e-01 -4.44153e-02  2.45996e-01
  1.15771e-01 -3.82484e-01  2.88646e-02
 -6.17307e-01 -1.83123e-01  1.91423e-01
 -4.66539e-01  1.60785e-01  1.96526e-01
 -8.87520e-01 -3.29293e-01  2.13360e-01
  1.05429e-02 -7.83105e-02 -3.93653e-01
 -1.58448e-01  2.97788e-01  2.46070e-01
  3.09954e-03  1.69749e-02  2.64384e-01
  8.40525e-01  3.56755e-01  2.89200e-01
  4.26949e-01 -2.37328e-01 -3.16299e-01
 -6.85282e-01 -2.78706e-01 -2.71953e-01
  2.23771e-01  3.80436e-01 -1.39841e-01
 -7.55553e-01 -1.79692e-01  1.86309e-01
 -9.94123e-01 -2.16427e-01 -2.88372e-01
  9.23928e-01  1.26884e-01 -4.10262e-01
 -1.52818e-01  1.50596e-01  2.17925e-01
  7.70025e-02  1.05595e-01 -2.38691e-01
  9.19716e-01  1.76358e-01 -4.13691e-01
 -5.92759e-01  1.68793e-01  3.49031e-01
  8.40840e-01 -5.06865e-02 -4.06376e-01
  5.06603e-01  2.43693e-01 -3.14788e-01
 -9.80523e-01 -3.80679e-01 -1.88643e-02
 -7.66613e-01 -3.88725e-01  2.10857e-02
  3.54167e-01  3.92502e-01  4.34851e-02
 -1.41822e-01 -1.42268e-01 -3.64868e-01
  7.90812e-01  1.80705e-01  1.77365e-01
 -3.29965e-01 -3.51514e-01 -1.84242e-01
  5.64490e-01 -2.28468e-01 -1.07708e-01
 -4.04488e-04 -1.68628e-01  1.83400e-01
 -8.26083e-01  1.00438e-01  2.34582e-01
 -9.10574e-01  5.92349e-02  2.51269e-01
  2.15698e-01 -3.66377e-01  1.19530e-01
 -3.57876e-01  3.16105e-01  2.25677e-01
 -6.74512e-02  2.06332e-01  3.30252e-01
 -8.99226e-01  2.75970e-02 -2.68955e-01
  5.58100e-01 -3.69916e-01 -1.09616e-01
  9.16491e-01 -4.95787e-02 -3.94934e-01
  9.05619e-01  4.04061e-01 -1.89467e-01
  9.29988e-01  3.66230e-01  3.91216e-02
  1.64213e-01 -2.51686e-01 -9.52940e-02
  3.36252e-01  3.82407e-01 -1.09935e-01
  7.93551e-02 -2.36363e-01 -1.22955e-01
  6.42973e-01 -2.27855e-01  1.15940e-01
 -9.91270e-01  2.55018e-01 -3.70282e-03
  3.28745e-01 -1.24267e-01  3.57026e-01
 -5.47516e-01 -2.51447e-01  8.41937e-02
 -6.65241e-01 -3.70427e-02 -3.93274e-01
 -2.35144e-01 -3.27045e-02  3.82031e-01
  2.06636e-01  3.56214e-01  1.67238e-01
  1.53929e-01  3.10835e-01  2.24525e-01
 -5.64506e-01  2.10926e-01  3.18114e-01
  5.64861e-01 -3.47711e-01 -1.99352e-01
  2.89000e-01  1.23898e-01  3.64236e-01
  3.49902e-01  5.46681e-02  2.59240e-01
  6.64229e-01 -3.77658e-01 -5.18825e-02
 -8.92473e-01  2.73898e-01 -2.87118e-01
  3.31413e-01  2.63781e-01 -2.96948e-01
  3.33052e-01 -3.21701e-01  2.03035e-01
  8.98266e-01 -3.97092e-01  2.14712e-01
 -8.92366e-01  3.54206e-01  1.60667e-01
  8.96038e-02  3.90451e-01 -2.83467e-02
 -8.42509e-02 -2.41532e-01 -1.02590e-01
 -2.68926e-02  1.06234e-01  2.35241e-01
  4.27343e-01 -2.29064e-01  1.22399e-01
  1.72042e-01  5.77188e-02  3.89538e-01
  2.97046e-01  5.67481e-02  2.40487e-01
  9.59435e-02  2.03497e-01  3.43117e-01
 -9.77859e-01  2.61275e-02  3.85271e-01
  2.43111e-01 -3.69331e-01 -1.28915e-01
 -8.97487e-01  1.76687e-01  3.50302e-01
  5.84787e-01  2.40668e-01 -1.03451e-01
 -1.42971e-02  2.44977e-01 -9.79229e-02
  7.61478e-01 -3.84452e-01  7.91891e-02
  1.53199e-01  3.89324e-01  2.30337e-02
 -8.90370e-01  3.36555e-01  1.84759e-01
  9.18046e-01 -2.02407e-01  2.98029e-01
 -4.20087e-01  2.36562e-01  1.05827e-01
  6.87829e-01  1.90723e-01 -1.92116e-01
 -9.78933e-01  2.60841e-01  2.71835e-01
 -4.36014e-01  8.11856e-02 -3.80262e-01
 -6.47928e-01 -1.28958e-01  3.59745e-01
 -5.10248e-01 -3.50967e-01  1.45628e-01
  8.58819e-01  4.11773e-02 -2.58824e-01
 -1.01584e-01 -2.99552e-01  2.47874e-01
  5.62459e-01 -4.46058e-02  3.75659e-01
  6.41999e-01 -1.34854e-01  3.57389e-01
  5.02841e-03 -8.37715e-02 -3.89532e-01
  5.83710e-01 -4.37211e-02  2.60416e-01
  3.09251e-01 -2.34009e-01 -1.29260e-01
 -7.07145e-01 -2.54339e-01  4.53309e-02
  3.87308e-01 -1.56241e-01  2.08910e-01
 -2.77854e-01 -2.95385e-01 -2.68472e-01
  4.88666e-01  1.69789e-01 -1.99594e-01
 -2.20414e-01 -2.06787e-01 -3.36007e-01
  3.19137e-01  2.71994e-01  1.22694e-02
  1.01241e-01  3.05695e-01 -2.64571e-01
  8.65154e-01 -2.40223e-01  6.52989e-02
  7.37881e-01 -1.42540e-01 -3.66532e-01
 -7.88602e-01 -7.44960e-04 -2.74733e-01
 -2.60714e-01 -3.89354e-01 -8.34137e-02
  8.60269e-01  2.72365e-01  8.46078e-03
 -5.10449e-01 -3.73762e-01  6.22099e-02
  6.43382e-01 -2.54625e-01 -6.66252e-02
  8.18850e-01 -3.59810e-01 -2.32665e-01
 -2.57687e-03  7.96931e-02  2.37370e-01
 -3.71892e-01  1.91615e-02 -3.95989e-01
  9.15024e-01  4.29230e-02 -4.26715e-01
 -7.45865e-01 -2.60010e-01  2.36668e-02
 -5.57064e-01  1.69005e-01 -1.97448e-01
 -7.54816e-01  3.40165e-01 -2.23119e-01
 -5.51197e-01  3.62731e-01 -1.48430e-01
  6.32573e-01  1.77873e-01  3.53474e-01
  7.31730e-01  6.66560e-02  3.72504e-01
 -9.08521e-01  1.91865e-01  1.63747e-01
  8.77719e-01 -1.91158e-01 -1.86409e-01
 -9.81345e-01 -2.68644e-01 -2.93762e-01
  4.15175e-01  2.48146e-01  8.70562e-02
 -3.98018e-02  1.71639e-01 -2.06163e-01
  9.16812e-01 -6.43246e-02 -4.10123e-01
  2.86582e-01  3.86418e-02  3.79812e-01
 -2.57221e-01 -1.95844e-01  3.43744e-01
  8.76571e-01  1.78817e-01  1.82743e-01
 -9.20255e-01 -3.01545e-01  2.34525e-01
  4.06274e-01  2.05053e-01  3.24398e-01
  3.62905e-01  3.78991e-01 -1.24837e-01
 -5.80915e-01 -8.52108e-02  2.40376e-01
 -8.99053e-01 -2.80175e-01  2.68556e-01
 -1.00117e+00  2.48545e-01  1.27721e-01
  6.35232e-01 -1.23954e-01  3.76287e-01
  6.66207e-01  1.51504e-01  3.48879e-01
  2.04519e-01 -2.11866e-02  3.84224e-01
  3.17755e-01 -9.35083e-02  3.78976e-01
 -5.26809e-02 -2.68830e-01  2.65972e-01
 -1.19018e-02 -2.43895e-01  4.97978e-02
  1.13874e-02  3.95818e-01 -4.11306e-02
  9.25018e-01 -3.35888e-01 -1.89158e-01
  2.67990e-01 -9.02350e-03  2.64632e-01
  9.14181e-01  1.02670e-01 -2.82597e-01
  6.18035e-01  1.72292e-01 -1.92062e-01
 -5.59057e-01 -3.01579e-02  3.77887e-01
  3.42699e-01  2.50290e-01  5.94352e-02
  6.94386e-01 -3.74519e-01  7.96780e-02
  1.96231e-01  1.68518e-01 -1.96440e-01
 -4.14878e-01  2.72868e-01  1.30003e-02
 -2.18372e-01 -3.71911e-01  8.28857e-02
  4.29932e-01 -3.19838e-01 -2.40926e-01
  7.97683e-01 -3.73787e-01  7.81060e-02
 -2.11480e-01 -2.28837e-01 -1.26446e-01
 -5.23451e-01  5.45680e-02 -2.69788e-01
  6.92484e-01 -3.52617e-01 -1.79964e-01
  8.61673e-02  6.54322e-02  2.44676e-01
 -4.46597e-01  3.86609e-01  2.80381e-02
 -3.69362e-01  3.86155e-01 -6.41614e-02
 -7.15649e-01 -7.53483e-02  2.53629e-01
 -8.63372e-01  2.75012e-02  2.54733e-01
  8.23757e-01 -4.13016e-01 -1.49564e-01
 -5.10515e-01 -1.41840e-01 -3.72981e-01
  6.46078e-01 -2.30447e-01 -1.39013e-01
 -5.89090e-01  2.57557e-01  4.77827e-02
 -1.79306e-01  1.66335e-01  1.99084e-01
  8.24950e-01  2.35239e-01 -3.75362e-01
  6.50230e-02  3.77065e-01 -1.34628e-01
 -5.73494e-01  2.27505e-01 -3.17858e-01
  4.47444e-01 -2.95634e-02  3.86484e-01
 -6.87440e-01 -2.79760e-01 -2.73188e-01
  7.14177e-02 -3.78543e-01 -4.62654e-02
 -3.98581e-01 -3.80458e-01 -3.96042e-02
 -3.00601e-01 -2.34896e-01  1.08294e-01
  4.95132e-01 -2.46690e-01 -5.92756e-02
  9.10835e-01  1.17838e-02  2.65521e-01
 -7.44521e-01  3.66757e-01  1.57758e-01
 -1.58284e-01 -3.44787e-01 -1.67592e-01
  6.53464e-01 -3.78302e-01 -8.02303e-02
 -9.40672e-01  2.45533e-01 -9.54985e-02
  8.38256e-01 -2.69734e-01 -3.73961e-01
  4.40218e-01 -3.84917e-01 -5.25798e-02
 -1.00954e+00 -2.58364e-01 -1.02276e-01
 -2.13234e-01 -2.33830e-01 -1.23397e-01
 -6.33385e-01  1.78948e-01 -3.54343e-01
  7.78471e-01  2.46703e-01  1.07392e-01
  1.42987e-01  3.77354e-01  1.27849e-01
  4.90072e-01 -1.05874e-01  3.72792e-01
 -4.42616e-01  2.96291e-01 -2.58314e-01
  5.96312e-02 -3.65709e-01  1.11056e-01
 -5.49923e-01  1.96830e-01  1.82533e-01
 -3.20765e-01  1.87676e-01 -2.02371e-01
 -1.42746e-01 -3.85295e-01  4.26897e-03
  6.26092e-01  3.72475e-01  1.34541e-01
  8.34747e-01  3.79083e-01  1.91821e-01
  8.67151e-01  3.84605e-01 -2.38599e-01
  3.18979e-01 -2.37078e-01 -9.83206e-02
  8.96014e-01 -2.27424e-02  2.56928e-01
 -2.78316e-01 -4.24692e-02 -2.64301e-01
 -2.28611e-02  2.50000e-01  9.11217e-02
  5.03102e-01 -3.56154e-01  1.44827e-01
 -1.51986e-01 -2.72624e-01 -2.74775e-01
  5.59043e-01  1.79782e-01  3.41755e-01
 -4.80504e-01  1.22205e-01 -3.72505e-01
  3.42531e-01  2.44750e-01 -7.49861e-02
 -1.55824e-01  2.31212e-01  3.18685e-01
 -9.17610e-01  2.45947e-01 -3.15437e-01
 -2.95943e-01 -2.55118e-01 -3.10097e-01
  2.75218e-01 -3.09356e-02  3.90120e-01
 -8.95181e-01  2.46676e-01 -1.13019e-01
 -2.45754e-01  1.46918e-01  2.17891e-01
  1.02779e-02 -7.17377e-02 -3.92309e-01
 -1.00188e+00  3.34462e-01 -1.43030e-01
 -4.27806e-01  3.44605e-01 -1.98815e-01
  3.60034e-02  2.62802e-01  3.34713e-02
 -7.36017e-01 -8.92008e-03 -3.89679e-01
 -5.66247e-01 -1.33003e-01 -2.17007e-01
 -6.02738e-01 -3.63318e-01  1.28773e-01
 -1.04573e-01 -2.25572e-01 -3.24997e-01
  3.74792e-02 -7.39140e-02 -3.96727e-01
  2.35797e-01 -2.25145e-01 -1.44342e-01
  7.85782e-01 -2.96204e-02 -2.63019e-01
 -9.99580e-01 -3.09998e-01 -1.93577e-01
 -5.21372e-01 -1.89563e-01 -3.54744e-01
 -6.75476e-01 -3.99122e-02  3.80880e-01
 -1.67767e-01 -3.02281e-01  2.34519e-01
 -4.08056e-01 -6.67084e-02 -4.01070e-01
 -2.03185e-01  2.44872e-01  3.04186e-01
  2.99373e-01  3.31817e-01  2.05331e-01
 -5.15159e-01 -2.65176e-01  2.87729e-01
  3.56982e-01  3.14355e-01  2.27339e-01
 -5.32451e-01  1.91902e-01 -3.44036e-01
  5.33456e-01  2.00948e-01 -1.74003e-01
  8.17704e-01  4.15106e-01  7.50772e-02
  1.23126e-01  2.65232e-01  4.74536e-02
  8.87585e-03 -9.45174e-03 -2.62389e-01
  3.59594e-01 -2.33199e-02  3.92487e-01
 -7.20183e-01  3.72640e-01 -1.47993e-01
 -6.58006e-01  1.42254e-01 -2.27328e-01
  4.45442e-01  6.65422e-03 -2.67486e-01
 -2.92184e-01  6.43897e-03 -2.63478e-01
 -4.75137e-01  3.96557e-01  1.29067e-02
 -1.00910e+00  1.58674e-01 -3.17961e-01
  9.23650e-01 -5.03212e-02  4.27530e-01
  6.75107e-01 -3.74824e-01 -1.25930e-01
 -9.71663e-01 -1.16352e-01  3.71033e-01
 -1.00298e+00  2.78104e-01  2.16120e-01
  9.08074e-01 -2.71914e-01 -7.57950e-03
 -8.57885e-01 -3.28310e-01 -2.14590e-01
  7.51820e-02  4.64026e-02 -4.04395e-01
  9.20113e-01 -1.73151e-01 -2.64382e-01
  7.46843e-02 -2.43410e-01  1.04827e-01
  4.35191e-01  2.40883e-01  8.21239e-02
 -6.23144e-01 -3.81596e-01 -1.01578e-01
  1.68930e-01  2.80939e-01  2.81241e-01
  5.18966e-01 -3.50655e-01 -1.81257e-01
 -6.79183e-01 -1.98219e-01  3.32431e-01
  4.93514e-01 -2.00099e-01 -3.31210e-01
 -7.73051e-02  2.33236e-01 -3.35340e-01
  8.34809e-01 -2.60391e-01  3.51677e-01
  1.93375e-02  3.69949e-01 -1.33548e-01
 -8.04375e-01 -1.68724e-01  3.39315e-01
  5.49552e-01 -2.64346e-01 -2.85562e-01
  3.38741e-01  2.30383e-01 -1.37788e-01
 -9.28116e-01 -3.96271e-01  1.65789e-02
 -4.35154e-02 -3.99241e-01 -4.89359e-03
  8.59726e-01 -3.55628e-01 -2.86192e-01
  3.55613e-01 -2.65165e-01  2.67455e-01
 -6.58908e-01  2.59922e-01 -3.05343e-01
 -2.33841e-01  7.96320e-02  2.46466e-01
 -1.00510e+00 -1.94624e-01 -2.58699e-01
  1.52006e-01 -2.59817e-01  2.97998e-01
  8.26853e-01 -4.09699e-01  3.81029e-02
  1.14487e-01 -3.04533e-01 -2.55548e-01
 -4.84171e-01 -3.81281e-01  6.60803e-02
  4.00775e-01 -1.88095e-01  3.44899e-01
  1.93237e-01  2.14323e-01  3.27857e-01
  1.99927e-01  3.71872e-01  1.52637e-01
 -9.34157e-01 -3.74052e-01  1.04685e-01
  7.36274e-01  9.18450e-02 -3.78279e-01
 -5.94447e-01  2.67395e-01  3.28489e-02
  6.75173e-01 -1.93555e-01  3.36272e-01
 -6.91976e-01 -2.02924e-02  2.45785e-01
  8.21595e-01  3.18054e-01  2.73755e-01
 -4.13558e-01 -3.51408e-01 -1.88363e-01
  6.68303e-01  3.57362e-01 -1.57685e-01
  1.75089e-01 -1.14116e-01  2.16587e-01
  6.98962e-01 -1.86241e-01 -1.87956e-01
 -9.93558e-01  1.08056e-01  2.31747e-01
 -8.77313e-01  2.66354e-02 -3.97621e-01
 -1.00906e-01  3.80149e-01  1.20732e-01
 -3.15017e-02  2.57316e-01 -2.88213e-02
 -8.22949e-01 -1.49697e-01 -2.14992e-01
  9.19389e-01 -1.57065e-01 -3.36220e-01
  2.55816e-01  3.33843e-01 -2.06634e-01
 -2.96937e-01  8.16729e-02 -3.88144e-01
  1.21533e-01 -1.47598e-01 -3.63258e-01
  3.61783e-01 -1.57471e-01  2.01406e-01
 -4.76899e-01 -3.82748e-01  8.17742e-02
 -8.17217e-01  3.89968e-01  8.46775e-02
 -4.26618e-01 -6.58192e-02  3.71694e-01
  8.05073e-01  2.96695e-01 -2.58736e-01
  9.31921e-01  3.22907e-01  2.05000e-01
 -2.54837e-01  3.60609e-02 -2.62752e-01
 -5.30294e-01  9.41698e-02  2.35271e-01
 -7.00117e-01  2.15273e-01 -1.44779e-01
 -6.41211e-01  2.04675e-01 -1.85939e-01
  3.64994e-01 -2.60008e-01 -6.53559e-02
 -2.73146e-02 -7.54614e-02  2.35556e-01
 -5.23534e-01  1.77075e-01 -1.97701e-01
  8.21889e-01 -1.77133e-01  3.65249e-01
  6.67354e-01 -3.30651e-01  1.90660e-01
  9.17682e-01 -8.20347e-02  3.88973e-01
 -9.80555e-01  3.67814e-01 -1.41710e-01
 -8.66964e-01 -7.85243e-02  3.87056e-01
  2.35685e-01  3.22269e-01 -2.36537e-01
 -7.46879e-01 -3.32414e-01 -2.01064e-01
  9.27813e-01  2.18572e-01  2.61850e-01
  4.44115e-01  9.17568e-02 -2.59414e-01
  2.56163e-01  3.26511e-01 -2.18963e-01
  3.76630e-01 -1.01578e-01  2.26794e-01
 -5.00805e-01  9.56966e-02  2.31726e-01
  6.57230e-01 -7.87799e-02 -3.87303e-01
 -4.77409e-01 -3.86035e-01  7.49424e-02
 -6.91402e-01 -6.87781e-02 -2.62960e-01
 -5.02188e-01 -3.62849e-01 -1.33853e-01
 -2.10333e-01  2.55979e-01 -8.56874e-03
 -5.73240e-01 -2.60837e-01  2.90848e-01
  8.86093e-03 -2.56909e-01 -3.05303e-01
 -7.57185e-01 -2.41219e-01 -1.05235e-01
  3.84082e-01 -1.59614e-01  3.42781e-01
 -4.31183e-01 -2.82167e-01  2.54961e-01
  9.20344e-01 -2.27917e-01 -3.70264e-01
  1.93088e-01 -3.60190e-01  1.14998e-01
 -9.56623e-01 -2.91243e-01  2.41160e-01
 -2.29138e-01 -2.42300e-02 -2.69013e-01
 -1.15117e-01  1.64384e-01  1.96781e-01
 -9.98393e-01  3.25422e-01  5.08898e-02
 -1.67795e-01  3.60339e-01  1.75906e-01
  1.65780e-01  1.35530e-01 -3.76001e-01
  3.09327e-01 -3.94863e-01  1.83721e-02
 -9.03814e-01  2.48291e-01  3.01588e-01
 -1.05000e-01 -3.02385e-01 -2.59295e-01
  6.89557e-01  3.78029e-01  1.38845e-01
 -5.47119e-01  2.51632e-01 -3.13899e-01
  8.62756e-01 -7.49425e-03 -4.66808e-01
 -2.00278e-02 -2.80053e-01  2.75452e-01
  2.07585e-01 -1.55223e-01  1.89981e-01
  2.00041e-01 -2.14256e-01  3.15105e-01
  2.03552e-01 -1.17611e-01  3.68767e-01
  3.18805e-01  5.58743e-02 -2.69915e-01
  5.25380e-01 -1.27585e-01 -3.78229e-01
 -3.74953e-01 -2.73217e-01 -2.92358e-01
  1.47280e-01  3.11913e-01  2.49834e-01
  6.93146e-01 -5.93283e-02  3.79068e-01
 -2.27533e-01 -2.15828e-01  1.52576e-01
 -8.97898e-01  3.05999e-03  3.77172e-01
 -5.01998e-01  2.94051e-01 -2.65825e-01
  1.32033e-01  1.38107e-01 -3.72198e-01
  5.92930e-02 -1.20097e-02 -4.00337e-01
 -9.26124e-03 -2.16190e-01  1.32460e-01
  6.63003e-01 -2.66613e-01 -2.26008e-02
  7.46588e-01 -3.56602e-01 -1.58664e-01
 -5.78188e-02  1.74645e-01 -1.98723e-01
 -8.49843e-02  8.06394e-02  2.48703e-01
  1.34022e-01 -2.08049e-01  1.32349e-01
  4.48772e-02  1.74736e-02  3.88343e-01
 -1.00200e+00 -7.42489e-03 -3.67555e-01
 -5.19454e-01  3.91590e-01  4.42993e-03
 -8.23104e-01  3.59652e-01 -1.82418e-01
  8.11756e-01 -7.20582e-02 -2.55152e-01
  8.37962e-02 -3.51015e-01 -1.80649e-01
 -4.93446e-01  1.42154e-01  2.24185e-01
  6.73304e-01 -7.33564e-02  3.81098e-01
  4.13438e-01  1.87977e-01 -1.77756e-01
 -6.46500e-02  2.58253e-01  5.76065e-02
 -2.95609e-01 -3.79360e-01 -2.58621e-02
 -6.85640e-03  2.60883e-01  7.46696e-02
 -5.22700e-01 -3.82088e-01 -2.76685e-02
  1.97126e-01 -2.29210e-01 -3.28075e-01
  2.14583e-01  1.91782e-01 -1.89944e-01
 -3.30718e-01  2.54413e-01 -9.52761e-02
  8.23274e-01  3.88685e-01  1.27805e-01
  2.40336e-01  2.56822e-01 -8.05869e-02
  2.06739e-01  3.68481e-01  1.59820e-01
  8.36354e-01  2.14187e-01 -4.03618e-01
  5.07746e-02 -2.43658e-01  5.45488e-02
 -7.23229e-01 -3.76636e-01 -1.00567e-01
  3.27975e-01  2.69026e-01 -2.84252e-01
 -1.24510e-01 -1.10683e-01  3.61312e-01
 -3.97640e-01 -3.90070e-01  5.32140e-02
  4.07157e-01  3.67955e-01  1.13969e-01
 -2.77468e-01  4.04455e-01  1.40077e-04
  3.10391e-01 -1.62258e-02 -2.67800e-01
  5.93224e-01 -5.92042e-02  3.72537e-01
  7.13268e-01 -2.35412e-01 -1.21835e-01
 -1.78973e-01  2.80789e-01  2.68058e-01
 -1.75770e-01 -1.95171e-01 -1.83818e-01
  4.13462e-01 -3.37320e-01 -1.96600e-01
  5.74153e-01 -1.87416e-02  2.61824e-01
  8.16654e-01  2.96786e-01  3.00728e-01
  9.09729e-01  1.29917e-01 -2.57223e-01
  7.85777e-01 -2.01412e-01  3.28469e-01
  5.00459e-02 -1.58177e-01  2.10035e-01
  6.73658e-01 -1.58356e-01 -2.10026e-01
  5.03421e-01  1.80197e-01 -2.01284e-01
 -1.18559e-01 -5.98147e-02  2.50722e-01
  4.85770e-01  1.05422e-01 -3.90368e-01
 -1.96684e-01 -1.10333e-01  3.62485e-01
 -9.78538e-01 -1.30028e-01  3.53909e-01
 -6.19667e-01 -2.97149e-01 -2.70878e-01
 -2.30492e-01 -3.53963e-01  1.44463e-01
 -6.40243e-01 -7.64497e-02 -2.60958e-01
 -2.10079e-01 -3.82227e-01 -5.10030e-02
 -8.46178e-01 -1.65528e-01 -2.10246e-01
  5.93302e-01  5.17160e-02 -3.86010e-01
 -9.25814e-01 -1.85614e-01 -1.74660e-01
 -7.57789e-01 -1.57080e-01 -3.63207e-01
  5.07538e-01  1.63844e-01  3.59142e-01
  6.96103e-01  3.70912e-01 -1.44350e-01
 -3.97813e-01  1.87508e-01  3.37177e-01
 -6.82734e-01  2.35159e-01 -1.03809e-01
  8.39712e-01 -1.22364e-01  3.49365e-01
  5.17028e-01  8.66404e-02  2.39186e-01
 -5.50082e-01 -5.86010e-02 -2.64242e-01
  8.63221e-01 -1.49117e-01  4.22713e-01
  8.47470e-01 -2.16303e-01 -4.14895e-01
 -4.70493e-01  2.61803e-01  2.63380e-02
 -1.49162e-01 -2.45389e-01  6.92757e-02
 -1.00121e+00 -2.14803e-01 -1.77440e-01
 -1.04235e-01  7.68670e-02  2.42780e-01
 -3.75080e-01  2.64084e-01 -6.40976e-02
  9.03839e-01 -1.39829e-01  2.14989e-01
 -5.80935e-01  2.55145e-01 -3.03958e-01
 -4.02495e-01 -3.47936e-01  1.60646e-01
  5.13336e-01  3.25252e-01  2.20168e-01
 -5.74443e-01 -1.27376e-01 -3.73527e-01
 -5.66383e-01  2.09956e-01  1.47303e-01
 -9.80051e-01 -1.50447e-01 -2.11661e-01
 -2.18568e-01 -1.53598e-01  1.93344e-01
 -8.67840e-01  1.83870e-02 -2.60443e-01
 -1.90960e-02  2.36057e-01  9.08522e-02
 -2.32835e-01  1.78620e-01 -3.64216e-01
  2.25433e-01  8.84681e-02 -2.43614e-01
  1.76682e-01 -2.52459e-01  7.47709e-03
  7.89310e-01  1.92380e-01  1.80326e-01
 -1.27063e-01  1.74365e-01 -3.47948e-01
  7.37951e-01 -2.76589e-02  2.63137e-01
  8.38106e-01  1.19897e-01 -3.76616e-01
  4.12535e-01 -3.35549e-01  1.90503e-01
 -8.12991e-01 -1.75934e-01 -3.51069e-01
  5.82421e-01  6.44864e-02  3.76855e-01
  3.78632e-01 -1.86830e-01 -3.49572e-01
 -4.50556e-01  2.41590e-02 -2.62653e-01
  8.85890e-01 -1.62537e-01 -2.05938e-01
  1.80627e-01 -2.70663e-01 -2.90760e-01
 -4.54353e-01 -3.55216e-01  1.67589e-01
  2.62507e-02  8.33218e-02  2.47429e-01
 -8.20866e-01 -2.52008e-01  2.95788e-01
 -1.00961e+00  3.60940e-01 -2.69368e-02
  4.18917e-01 -1.87089e-01  1.61399e-01
  1.36709e-01  2.53182e-01  2.26559e-02
  5.08413e-01  3.58193e-01  1.82761e-01
 -5.33620e-01 -6.56067e-02  3.80319e-01
 -8.91796e-01  1.43941e-01  2.25254e-01
  5.82208e-01  2.78031e-01  2.78043e-01
 -1.48748e-01  1.15414e-01  3.64308e-01
 -3.33972e-01  3.73542e-01  1.29638e-01
  7.22711e-01  7.83820e-02  3.88480e-01
 -7.43242e-01  2.58566e-01 -3.10873e-01
 -2.36549e-02 -1.58254e-01  3.54670e-01
  2.38642e-01  3.98229e-01 -7.66468e-02
  9.29537e-01  3.44967e-01 -1.86593e-01
  8.34424e-01  2.36450e-01  9.09309e-02
  6.62910e-01  1.25749e-01  2.35236e-01
 -9.06774e-01 -6.19150e-02 -3.96716e-01
  3.23381e-01  2.45155e-01  8.58747e-02
 -2.05296e-01  3.48224e-01  1.92518e-01
  9.97321e-02 -3.82077e-01 -1.18563e-01
  1.26680e-01 -1.81848e-01  3.46635e-01
 -2.40142e-01 -3.02601e-01  2.39654e-01
  4.21877e-01  3.94738e-02 -2.59868e-01
  9.20830e-01 -3.15646e-01  7.03259e-02
  6.66533e-01  2.32597e-01  9.94041e-02
 -2.97377e-01  3.33217e-02  3.88638e-01
 -8.58489e-01  2.51075e-01  4.65754e-02
 -2.93518e-01  8.87399e-02  2.49668e-01
  4.06861e-01  2.39860e-01 -3.17059e-01
  3.09662e-01 -4.61338e-02 -4.01747e-01
  8.92931e-01  1.79924e-01  4.08666e-01
 -3.25209e-01  3.47408e-01 -1.96738e-01
  6.71458e-02 -2.76741e-01  2.68293e-01
  8.33161e-01  4.60103e-01 -7.54844e-02
  6.48547e-01 -3.82971e-01 -4.23979e-02
 -2.28521e-01 -1.52934e-01  3.59546e-01
  8.64765e-01  1.60353e-01  4.29344e-01
 -8.71914e-01 -3.66957e-01  1.35049e-01
 -5.30393e-01 -3.46039e-01 -1.76101e-01
 -2.75631e-01 -2.29326e-01  1.30581e-01
 -1.38635e-01  2.51068e-01 -9.30662e-02
  2.33720e-01 -3.14474e-01  2.13759e-01
 -5.42396e-01  6.81530e-02  2.40586e-01
 -9.43198e-01 -1.75148e-01 -1.85753e-01
  7.90291e-01 -2.05168e-01 -1.49841e-01
 -7.06040e-01 -3.83257e-01  4.96758e-02
  5.60097e-01 -1.02734e-01  3.72085e-01
  9.33843e-01  3.88284e-01 -2.43199e-02
  7.88310e-02  3.19319e-01 -2.44983e-01
 -8.25689e-01  2.98346e-01  2.66788e-01
  4.89199e-01  4.01636e-01  3.52768e-02
  8.08369e-01  3.69720e-01  1.34193e-01
  9.34528e-02  3.88404e-01 -6.91011e-02
  6.59933e-01  1.12906e-01  3.76547e-01
  4.18545e-01  3.67837e-02  2.59545e-01
 -1.33962e-01 -3.74669e-01  6.10282e-02
  8.97041e-01 -2.71230e-01 -2.54068e-02
  2.64791e-01  2.82392e-01  2.77294e-01
 -7.30582e-01 -3.70371e-01 -1.42183e-01
  8.16615e-01 -4.19950e-01 -3.04100e-02
 -1.37907e-01  1.77573e-01  1.80289e-01
  6.58109e-01 -1.65661e-01  3.41091e-01
  3.45524e-01 -1.39805e-01 -3.81395e-01
 -9.98888e-01 -3.63099e-01  1.05685e-01
  9.02445e-01 -4.29091e-01  5.29378e-02
 -5.86816e-01  1.78458e-01  3.34581e-01
  8.02885e-01  3.42803e-01 -2.01045e-01
  7.48301e-02 -2.37576e-01  3.08673e-01
 -8.42998e-01 -5.03304e-02  3.92023e-01
 -4.97479e-01  1.65022e-01 -3.52042e-01
  7.56532e-01 -1.76851e-01  1.71234e-01
  3.40222e-01 -3.62959e-02  2.53518e-01
 -5.52184e-01 -3.45947e-01 -1.86530e-01
 -9.98949e-01  7.18675e-02  3.57140e-01
  2.69746e-01 -2.37364e-01  7.84684e-02
 -8.17832e-01 -2.21099e-01  1.11929e-01
 -7.58846e-01  1.00572e-01  3.70363e-01
 -3.89325e-01  1.57521e-01  2.15423e-01
 -7.11213e-01 -7.02089e-02  3.74293e-01
 -5.11593e-01  2.04587e-01 -1.83049e-01
  6.54740e-01  2.58361e-01 -8.70015e-02
  2.47957e-02  4.04478e-01  8.49641e-03
 -5.90301e-01  1.72560e-01 -3.53238e-01
 -6.56629e-01 -3.85365e-01 -6.95961e-02
 -5.10608e-01  3.40631e-01  1.76049e-01
 -3.13208e-01 -2.39920e-01 -3.20276e-01
  7.25530e-02 -2.55893e-01 -5.46486e-02
  2.28133e-01 -2.31744e-01  1.14940e-01
  3.11953e-01 -2.53109e-01  7.95996e-02
 -7.41574e-01  2.39751e-01  1.16660e-01
  8.78588e-01  1.33603e-01  4.23445e-01
  6.02962e-01  8.09652e-02  2.35408e-01
  7.06933e-01 -2.56541e-01  2.77336e-01
  8.38481e-01 -3.43354e-01  1.97453e-01
  3.67132e-01 -2.80776e-01 -2.88427e-01
  7.77985e-01  2.56721e-01 -2.04329e-02
 -3.19211e-01 -3.90283e-01 -8.75498e-02
  2.51854e-01  3.98690e-01  5.17417e-02
 -7.30727e-01  4.21655e-02  2.61653e-01
 -4.39459e-01 -1.68334e-01  1.89119e-01
 -5.25173e-01  2.52959e-01 -3.18687e-01
  2.81819e-01 -2.08401e-01 -1.57525e-01
 -1.67977e-01  3.97559e-01 -1.61803e-02
 -8.51915e-02  3.70180e-01  1.49657e-01
  4.29770e-01  7.16576e-02 -4.00250e-01
 -3.15680e-01  3.54445e-01  1.84570e-01
  1.74387e-01 -1.60527e-01  2.06927e-01
 -5.00132e-01  2.56387e-01  4.75200e-02
  6.78816e-01  5.74612e-02  3.89980e-01
  4.60071e-01  2.27512e-01 -1.44839e-01
 -1.90456e-01 -4.24322e-03 -3.89708e-01
 -2.10351e-01 -2.13741e-01 -3.33350e-01
 -5.82906e-01  2.67835e-01 -6.81336e-03
  8.41809e-01  7.71411e-02  4.44753e-01
  3.81766e-01  2.58043e-01 -8.99247e-02
  9.62107e-02  3.58256e-01  1.56779e-01
  8.45518e-01 -1.30859e-01  4.33204e-01
  6.76390e-01  2.44686e-01 -7.66979e-02
  3.54297e-01 -1.04869e-01 -3.90350e-01
 -7.84026e-01  7.29716e-02 -3.83169e-01
  3.94310e-01  2.36705e-01  1.09657e-01
  9.04691e-01 -3.69530e-01 -2.69132e-01
  9.23998e-01 -1.01262e-01 -3.14215e-01
 -9.14043e-01 -2.51512e-01 -1.85174e-03
  8.26771e-01 -3.46630e-01  2.72036e-01
  8.34934e-01  1.26216e-01 -3.64336e-01
 -3.48569e-01 -2.04052e-01 -1.69473e-01
  5.60576e-01  1.28003e-01  2.29523e-01
  6.89515e-01 -4.90077e-02 -3.93824e-01
  1.22657e-01 -2.89044e-02 -4.00563e-01
  4.00983e-01 -1.06231e-01 -2.37818e-01
 -8.97381e-01  3.15529e-01 -2.49389e-01
 -9.50924e-01  1.59991e-01  3.60319e-01
  3.54737e-01 -3.28087e-02 -4.02547e-01
 -9.73625e-01  1.66551e-01  1.92887e-01
  2.88494e-01  3.38714e-01  1.79873e-01
 -6.52886e-01 -5.19700e-02  2.40837e-01
 -3.16373e-01 -1.23046e-01  2.12895e-01
  4.62620e-01  2.40742e-01 -1.21361e-01
 -7.07619e-01  2.38999e-01 -3.18518e-01
  5.31528e-01 -2.94820e-01  2.45011e-01
