# .PCD v0.7 - Point Cloud Data file format
VERSION 0.7
FIELDS x y z
SIZE 4 4 4
TYPE F F F
COUNT 1 1 1
WIDTH 1510
HEIGHT 1
VIEWPOINT 0 0 0 1 0 0 0
POINTS 1510
DATA ascii
-0.1635 0.1140867 0.76300001
-0.1620467 0.1140867 0.76300001
-0.1605933 0.1140867 0.76300001
-0.15914001 0.1140867 0.76300001
-0.1576867 0.1140867 0.76300001
-0.1562333 0.1140867 0.76300001
-0.1543743 0.1137876 0.76099998
-0.15292481 0.1137876 0.76099998
-0.1514753 0.1137876 0.76099998
-0.1500257 0.1137876 0.76099998
-0.1485762 0.1137876 0.76099998
-0.1471267 0.1137876 0.76099998
-0.1456771 0.1137876 0.76099998
-0.14422759 0.1137876 0.76099998
-0.14315329 0.1140867 0.76300001
-0.1413286 0.1137876 0.76099998
-0.13245711 0.1136381 0.76000011
-0.1310095 0.1136381 0.76000011
-0.072886661 0.1257495 0.84100002
-0.07111524 0.12545051 0.83899999
-0.069351427 0.1251514 0.83700001
-0.067757137 0.1251514 0.83700001
-0.066004761 0.1248524 0.83499998
-0.064414293 0.1248524 0.83499998
-0.06282381 0.1248524 0.83499998
-0.060940001 0.1242543 0.83099997
-0.059500009 0.1245533 0.83300012
-0.057913341 0.1245533 0.83300012
-0.056191429 0.1242543 0.83099997
-0.054608569 0.1242543 0.83099997
-0.053025719 0.1242543 0.83099997
-0.051442862 0.1242543 0.83099997
-0.049860001 0.1242543 0.83099997
-0.04827714 0.1242543 0.83099997
0.0579619 0.107059 0.71600002
0.059408572 0.1072086 0.71700001
0.060774289 0.1072086 0.71700001
0.062139999 0.1072086 0.71700001
0.063417137 0.107059 0.71600002
0.064871423 0.1072086 0.71700001
0.066237137 0.1072086 0.71700001
0.067508571 0.107059 0.71600002
0.068872377 0.107059 0.71600002
0.07004001 0.10676 0.71399999
0.071599998 0.107059 0.71600002
0.072760001 0.10676 0.71399999
0.07412 0.10676 0.71399999
0.075480007 0.10676 0.71399999
0.076840013 0.10676 0.71399999
0.078090489 0.1066105 0.71300012
0.079559997 0.10676 0.71399999
0.080920003 0.10676 0.71399999
0.082280003 0.10676 0.71399999
0.083640002 0.10676 0.71399999
0.085000008 0.10676 0.71399999
0.086360008 0.10676 0.71399999
0.087719999 0.10676 0.71399999
0.089329533 0.107059 0.71600002
0.09069334 0.107059 0.71600002
0.092057154 0.107059 0.71600002
0.093420953 0.107059 0.71600002
0.094917141 0.1072086 0.71700001
0.096282847 0.1072086 0.71700001
0.097512379 0.107059 0.71600002
0.09901429 0.1072086 0.71700001
-0.3036752 0.1152371 0.76099998
-0.30222571 0.1152371 0.76099998
-0.30077621 0.1152371 0.76099998
-0.29932669 0.1152371 0.76099998
-0.29787719 0.1152371 0.76099998
-0.29603809 0.1150857 0.76000011
-0.29497811 0.1152371 0.76099998
-0.29352859 0.1152371 0.76099998
-0.2916953 0.1150857 0.76000011
-0.29024759 0.1150857 0.76000011
-0.28918001 0.1152371 0.76099998
-0.28773049 0.1152371 0.76099998
-0.28628099 0.1152371 0.76099998
-0.28445709 0.1150857 0.76000011
-0.28300959 0.1150857 0.76000011
-0.28156191 0.1150857 0.76000011
-0.28011429 0.1150857 0.76000011
-0.2786667 0.1150857 0.76000011
-0.27721909 0.1150857 0.76000011
-0.27577141 0.1150857 0.76000011
-0.27432379 0.1150857 0.76000011
-0.2728762 0.1150857 0.76000011
-0.27142861 0.1150857 0.76000011
-0.269981 0.1150857 0.76000011
-0.26853329 0.1150857 0.76000011
-0.2670857 0.1150857 0.76000011
-0.26563811 0.1150857 0.76000011
-0.2641905 0.1150857 0.76000011
-0.26274279 0.1150857 0.76000011
-0.26129529 0.1150857 0.76000011
-0.25984761 0.1150857 0.76000011
-0.25839999 0.1150857 0.76000011
-0.2569524 0.1150857 0.76000011
-0.25483239 0.1147829 0.75800002
-0.25338861 0.1147829 0.75800002
-0.25194481 0.1147829 0.75800002
-0.25050089 0.1147829 0.75800002
-0.2490571 0.1147829 0.75800002
-0.2476134 0.1147829 0.75800002
-0.24616949 0.1147829 0.75800002
-0.2447257 0.1147829 0.75800002
-0.2432819 0.1147829 0.75800002
-0.2418381 0.1147829 0.75800002
-0.24102861 0.1150857 0.76000011
-0.239581 0.1150857 0.76000011
-0.2375067 0.1147829 0.75800002
-0.2360629 0.1147829 0.75800002
-0.2346191 0.1147829 0.75800002
-0.2337905 0.1150857 0.76000011
-0.2323429 0.1150857 0.76000011
-0.2308953 0.1150857 0.76000011
-0.22884379 0.1147829 0.75800002
-0.2274 0.1147829 0.75800002
-0.2259562 0.1147829 0.75800002
-0.2245124 0.1147829 0.75800002
-0.22306859 0.1147829 0.75800002
-0.2222095 0.1150857 0.76000011
-0.2207619 0.1150857 0.76000011
-0.2196029 0.1152371 0.76099998
-0.2178667 0.1150857 0.76000011
-0.2164191 0.1150857 0.76000011
-0.21497139 0.1150857 0.76000011
-0.21352381 0.1150857 0.76000011
-0.21151809 0.1147829 0.75800002
-0.21007431 0.1147829 0.75800002
-0.2086305 0.1147829 0.75800002
-0.2071867 0.1147829 0.75800002
-0.2062857 0.1150857 0.76000011
-0.2048381 0.1150857 0.76000011
-0.20339049 0.1150857 0.76000011
-0.20220859 0.1152371 0.76099998
-0.2007591 0.1152371 0.76099998
-0.1993095 0.1152371 0.76099998
-0.19786 0.1152371 0.76099998
-0.1961524 0.1150857 0.76000011
-0.1947048 0.1150857 0.76000011
-0.1935114 0.1152371 0.76099998
-0.1920619 0.1152371 0.76099998
-0.1903619 0.1150857 0.76000011
-0.1889143 0.1150857 0.76000011
-0.1874667 0.1150857 0.76000011
-0.186019 0.1150857 0.76000011
-0.1845714 0.1150857 0.76000011
-0.1831238 0.1150857 0.76000011
-0.18167619 0.1150857 0.76000011
-0.18022861 0.1150857 0.76000011
-0.1783105 0.1147829 0.75800002
-0.1768667 0.1147829 0.75800002
-0.17588571 0.1150857 0.76000011
-0.1744381 0.1150857 0.76000011
-0.1729905 0.1150857 0.76000011
-0.1715429 0.1150857 0.76000011
-0.17009521 0.1150857 0.76000011
-0.1688695 0.1152371 0.76099998
-0.16742 0.1152371 0.76099998
-0.1659705 0.1152371 0.76099998
-0.16452099 0.1152371 0.76099998
-0.16307139 0.1152371 0.76099998
-0.1616219 0.1152371 0.76099998
-0.1601724 0.1152371 0.76099998
-0.15872291 0.1152371 0.76099998
-0.15727331 0.1152371 0.76099998
-0.1558238 0.1152371 0.76099998
-0.15417141 0.1150857 0.76000011
-0.1527238 0.1150857 0.76000011
-0.1512762 0.1150857 0.76000011
-0.1498286 0.1150857 0.76000011
-0.14838099 0.1150857 0.76000011
-0.1469333 0.1150857 0.76000011
-0.1454857 0.1150857 0.76000011
-0.1440381 0.1150857 0.76000011
-0.1427781 0.1152371 0.76099998
-0.1413286 0.1152371 0.76099998
-0.139879 0.1152371 0.76099998
-0.1321086 0.1147829 0.75800002
-0.1306648 0.1147829 0.75800002
-0.12922101 0.1147829 0.75800002
-0.12744001 0.11448 0.75599998
-0.126 0.11448 0.75599998
-0.073060013 0.1276543 0.84300011
-0.071284764 0.1273514 0.84100002
-0.069517143 0.1270486 0.83899999
-0.067919053 0.1270486 0.83899999
-0.066162847 0.1267457 0.83700001
-0.064568572 0.1267457 0.83700001
-0.062974289 0.1267457 0.83700001
-0.06108667 0.12614 0.83300012
-0.059642859 0.1264428 0.83499998
-0.05805238 0.1264428 0.83499998
-0.056326669 0.12614 0.83300012
-0.054871429 0.1264428 0.83499998
-0.05315334 0.12614 0.83300012
-0.051566672 0.12614 0.83300012
-0.04998 0.12614 0.83300012
-0.04850952 0.1264428 0.83499998
-0.046919052 0.1264428 0.83499998
0.05636096 0.1079686 0.71300012
0.057719052 0.1079686 0.71300012
0.059160002 0.10812 0.71399999
0.060520001 0.10812 0.71399999
0.061880011 0.10812 0.71399999
0.063151427 0.1079686 0.71300012
0.064509533 0.1079686 0.71300012
0.065959997 0.10812 0.71399999
0.067225717 0.1079686 0.71300012
0.068583816 0.1079686 0.71300012
0.069941908 0.1079686 0.71300012
0.071300007 0.1079686 0.71300012
0.072658099 0.1079686 0.71300012
0.074016191 0.1079686 0.71300012
0.07537429 0.1079686 0.71300012
0.07673239 0.1079686 0.71300012
0.078090489 0.1079686 0.71300012
0.079448573 0.1079686 0.71300012
0.080920003 0.10812 0.71399999
0.082164772 0.1079686 0.71300012
0.083640002 0.10812 0.71399999
0.085000008 0.10812 0.71399999
0.086360008 0.10812 0.71399999
0.087719999 0.10812 0.71399999
0.089080013 0.10812 0.71399999
0.09069334 0.1084229 0.71600002
0.092057154 0.1084229 0.71600002
0.093420953 0.1084229 0.71600002
0.094784766 0.1084229 0.71600002
0.096148573 0.1084229 0.71600002
0.097240001 0.10812 0.71399999
-0.30182859 0.1165333 0.76000011
-0.30077621 0.1166867 0.76099998
-0.29893339 0.1165333 0.76000011
-0.29748571 0.1165333 0.76000011
-0.29525909 0.1162267 0.75800002
-0.2945905 0.1165333 0.76000011
-0.29237151 0.1162267 0.75800002
-0.2916953 0.1165333 0.76000011
-0.28948379 0.1162267 0.75800002
-0.2888 0.1165333 0.76000011
-0.28735241 0.1165333 0.76000011
-0.28590479 0.1165333 0.76000011
-0.2837086 0.1162267 0.75800002
-0.2822648 0.1162267 0.75800002
-0.28082091 0.1162267 0.75800002
-0.27937719 0.1162267 0.75800002
-0.27793339 0.1162267 0.75800002
-0.2764895 0.1162267 0.75800002
-0.27504569 0.1162267 0.75800002
-0.27360189 0.1162267 0.75800002
-0.27215809 0.1162267 0.75800002
-0.27071431 0.1162267 0.75800002
-0.26927051 0.1162267 0.75800002
-0.26782671 0.1162267 0.75800002
-0.26638281 0.1162267 0.75800002
-0.26563811 0.1165333 0.76000011
-0.26349521 0.1162267 0.75800002
-0.2620514 0.1162267 0.75800002
-0.2606076 0.1162267 0.75800002
-0.2591638 0.1162267 0.75800002
-0.25771999 0.1162267 0.75800002
-0.25560001 0.11592 0.75599998
-0.25415999 0.11592 0.75599998
-0.25338861 0.1162267 0.75800002
-0.25194481 0.1162267 0.75800002
-0.24984001 0.11592 0.75599998
-0.2490571 0.1162267 0.75800002
-0.2476134 0.1162267 0.75800002
-0.24616949 0.1162267 0.75800002
-0.2447257 0.1162267 0.75800002
-0.2432819 0.1162267 0.75800002
-0.2418381 0.1162267 0.75800002
-0.24039429 0.1162267 0.75800002
-0.23895051 0.1162267 0.75800002
-0.2375067 0.1162267 0.75800002
-0.2360629 0.1162267 0.75800002
-0.2346191 0.1162267 0.75800002
-0.2331752 0.1162267 0.75800002
-0.2317314 0.1162267 0.75800002
-0.2302876 0.1162267 0.75800002
-0.22884379 0.1162267 0.75800002
-0.22679999 0.11592 0.75599998
-0.2259562 0.1162267 0.75800002
-0.22392 0.11592 0.75599998
-0.22306859 0.1162267 0.75800002
-0.22162481 0.1162267 0.75800002
-0.220181 0.1162267 0.75800002
-0.21931431 0.1165333 0.76000011
-0.2178667 0.1165333 0.76000011
-0.2158495 0.1162267 0.75800002
-0.2144057 0.1162267 0.75800002
-0.2129619 0.1162267 0.75800002
-0.21096 0.11592 0.75599998
-0.20952 0.11592 0.75599998
-0.2086305 0.1162267 0.75800002
-0.2071867 0.1162267 0.75800002
-0.2052 0.11592 0.75599998
-0.204299 0.1162267 0.75800002
-0.2028552 0.1162267 0.75800002
-0.2014114 0.1162267 0.75800002
-0.19996759 0.1162267 0.75800002
-0.1985238 0.1162267 0.75800002
-0.19708 0.1162267 0.75800002
-0.1956362 0.1162267 0.75800002
-0.19419239 0.1162267 0.75800002
-0.1932572 0.1165333 0.76000011
-0.1913048 0.1162267 0.75800002
-0.189861 0.1162267 0.75800002
-0.18841711 0.1162267 0.75800002
-0.1869733 0.1162267 0.75800002
-0.1855295 0.1162267 0.75800002
-0.1840857 0.1162267 0.75800002
-0.18264189 0.1162267 0.75800002
-0.18119811 0.1162267 0.75800002
-0.1797543 0.1162267 0.75800002
-0.17783999 0.11592 0.75599998
-0.17640001 0.11592 0.75599998
-0.17542291 0.1162267 0.75800002
-0.1739791 0.1162267 0.75800002
-0.1725352 0.1162267 0.75800002
-0.17109139 0.1162267 0.75800002
-0.1696476 0.1162267 0.75800002
-0.1682038 0.1162267 0.75800002
-0.16676 0.1162267 0.75800002
-0.1657524 0.1165333 0.76000011
-0.16430479 0.1165333 0.76000011
-0.1624286 0.1162267 0.75800002
-0.1614095 0.1165333 0.76000011
-0.159541 0.1162267 0.75800002
-0.15851431 0.1165333 0.76000011
-0.1566533 0.1162267 0.75800002
-0.1556191 0.1165333 0.76000011
-0.15376569 0.1162267 0.75800002
-0.1523219 0.1162267 0.75800002
-0.1512762 0.1165333 0.76000011
-0.1494343 0.1162267 0.75800002
-0.14799049 0.1162267 0.75800002
-0.14654671 0.1162267 0.75800002
-0.1451029 0.1162267 0.75800002
-0.1440381 0.1165333 0.76000011
-0.14259049 0.1165333 0.76000011
-0.1411429 0.1165333 0.76000011
-0.1396952 0.1165333 0.76000011
-0.13824759 0.1165333 0.76000011
-0.13643999 0.1162267 0.75800002
-0.13499621 0.1162267 0.75800002
-0.1335524 0.1162267 0.75800002
-0.1321086 0.1162267 0.75800002
-0.1306648 0.1162267 0.75800002
-0.12887999 0.11592 0.75599998
-0.12744001 0.11592 0.75599998
-0.126 0.11592 0.75599998
-0.074842863 0.1295667 0.84500003
-0.073060013 0.12926 0.84300011
-0.071454287 0.12926 0.84300011
-0.069682859 0.12895329 0.84100002
-0.067919053 0.1286467 0.83899999
-0.066320963 0.1286467 0.83899999
-0.064722873 0.1286467 0.83899999
-0.062974289 0.12834001 0.83700001
-0.061233342 0.1280333 0.83499998
-0.059642859 0.1280333 0.83499998
-0.05805238 0.1280333 0.83499998
-0.056461912 0.1280333 0.83499998
-0.054871429 0.1280333 0.83499998
-0.05328095 0.1280333 0.83499998
-0.051690482 0.1280333 0.83499998
-0.050099999 0.1280333 0.83499998
-0.04850952 0.1280333 0.83499998
-0.046919052 0.1280333 0.83499998
-0.045328569 0.1280333 0.83499998
0.055002861 0.1093267 0.71300012
0.056202859 0.10902 0.71100003
0.057719052 0.1093267 0.71300012
0.059077151 0.1093267 0.71300012
0.060435239 0.1093267 0.71300012
0.061620001 0.10902 0.71100003
0.062974289 0.10902 0.71100003
0.064328574 0.10902 0.71100003
0.065682858 0.10902 0.71100003
0.067037143 0.10902 0.71100003
0.06829524 0.1088667 0.70999998
0.069647633 0.1088667 0.70999998
0.071099997 0.10902 0.71100003
0.072454289 0.10902 0.71100003
0.073808573 0.10902 0.71100003
0.075162858 0.10902 0.71100003
0.076517142 0.10902 0.71100003
0.077871427 0.10902 0.71100003
0.079225719 0.10902 0.71100003
0.080806673 0.1093267 0.71300012
0.081934288 0.10902 0.71100003
0.083522864 0.1093267 0.71300012
0.084880963 0.1093267 0.71300012
0.086239047 0.1093267 0.71300012
0.087597147 0.1093267 0.71300012
0.088955253 0.1093267 0.71300012
0.090313353 0.1093267 0.71300012
0.091799997 0.10948 0.71399999
0.093029529 0.1093267 0.71300012
0.094387628 0.1093267 0.71300012
0.09574572 0.1093267 0.71300012
0.097103812 0.1093267 0.71300012
-0.3010343 0.1176705 0.75800002
-0.300381 0.117981 0.76000011
-0.29893339 0.117981 0.76000011
-0.29670289 0.1176705 0.75800002
-0.29525909 0.1176705 0.75800002
-0.29381531 0.1176705 0.75800002
-0.29237151 0.1176705 0.75800002
-0.29092759 0.1176705 0.75800002
-0.28948379 0.1176705 0.75800002
-0.28804001 0.1176705 0.75800002
-0.28659621 0.1176705 0.75800002
-0.28515241 0.1176705 0.75800002
-0.28296 0.11736 0.75599998
-0.28152001 0.11736 0.75599998
-0.28007999 0.11736 0.75599998
-0.27864 0.11736 0.75599998
-0.27793339 0.1176705 0.75800002
-0.27575999 0.11736 0.75599998
-0.27504569 0.1176705 0.75800002
-0.27360189 0.1176705 0.75800002
-0.27215809 0.1176705 0.75800002
-0.27071431 0.1176705 0.75800002
-0.26927051 0.1176705 0.75800002
-0.26782671 0.1176705 0.75800002
-0.26638281 0.1176705 0.75800002
-0.26493901 0.1176705 0.75800002
-0.26349521 0.1176705 0.75800002
-0.26135999 0.11736 0.75599998
-0.25992 0.11736 0.75599998
-0.25848001 0.11736 0.75599998
-0.25703999 0.11736 0.75599998
-0.25560001 0.11736 0.75599998
-0.25415999 0.11736 0.75599998
-0.25272 0.11736 0.75599998
-0.25128001 0.11736 0.75599998
-0.24984001 0.11736 0.75599998
-0.2484 0.11736 0.75599998
-0.24696 0.11736 0.75599998
-0.24552 0.11736 0.75599998
-0.24408001 0.11736 0.75599998
-0.24264 0.11736 0.75599998
-0.2412 0.11736 0.75599998
-0.23976 0.11736 0.75599998
-0.23831999 0.11736 0.75599998
-0.23688 0.11736 0.75599998
-0.23544 0.11736 0.75599998
-0.234 0.11736 0.75599998
-0.23255999 0.11736 0.75599998
-0.23112001 0.11736 0.75599998
-0.22968 0.11736 0.75599998
-0.22824 0.11736 0.75599998
-0.22679999 0.11736 0.75599998
-0.22536001 0.11736 0.75599998
-0.22392 0.11736 0.75599998
-0.22248 0.11736 0.75599998
-0.22104 0.11736 0.75599998
-0.21960001 0.11736 0.75599998
-0.21816 0.11736 0.75599998
-0.21672 0.11736 0.75599998
-0.21528 0.11736 0.75599998
-0.21383999 0.11736 0.75599998
-0.2124 0.11736 0.75599998
-0.21096 0.11736 0.75599998
-0.20952 0.11736 0.75599998
-0.20807999 0.11736 0.75599998
-0.20664001 0.11736 0.75599998
-0.2052 0.11736 0.75599998
-0.20376 0.11736 0.75599998
-0.20231999 0.11736 0.75599998
-0.20088001 0.11736 0.75599998
-0.19944 0.11736 0.75599998
-0.198 0.11736 0.75599998
-0.19656 0.11736 0.75599998
-0.19512001 0.11736 0.75599998
-0.19368 0.11736 0.75599998
-0.19224 0.11736 0.75599998
-0.1908 0.11736 0.75599998
-0.18935999 0.11736 0.75599998
-0.18792 0.11736 0.75599998
-0.18648 0.11736 0.75599998
-0.18504 0.11736 0.75599998
-0.18359999 0.11736 0.75599998
-0.18216 0.11736 0.75599998
-0.18072 0.11736 0.75599998
-0.17928 0.11736 0.75599998
-0.17783999 0.11736 0.75599998
-0.17640001 0.11736 0.75599998
-0.17496 0.11736 0.75599998
-0.1739791 0.1176705 0.75800002
-0.1725352 0.1176705 0.75800002
-0.17109139 0.1176705 0.75800002
-0.1696476 0.1176705 0.75800002
-0.1682038 0.1176705 0.75800002
-0.16632 0.11736 0.75599998
-0.16487999 0.11736 0.75599998
-0.16387241 0.1176705 0.75800002
-0.162 0.11736 0.75599998
-0.16056 0.11736 0.75599998
-0.159541 0.1176705 0.75800002
-0.1580971 0.1176705 0.75800002
-0.1566533 0.1176705 0.75800002
-0.1552095 0.1176705 0.75800002
-0.15376569 0.1176705 0.75800002
-0.1523219 0.1176705 0.75800002
-0.1508781 0.1176705 0.75800002
-0.1494343 0.1176705 0.75800002
-0.14799049 0.1176705 0.75800002
-0.14654671 0.1176705 0.75800002
-0.1451029 0.1176705 0.75800002
-0.1436591 0.1176705 0.75800002
-0.14221521 0.1176705 0.75800002
-0.1407714 0.1176705 0.75800002
-0.1393276 0.1176705 0.75800002
-0.1378838 0.1176705 0.75800002
-0.13643999 0.1176705 0.75800002
-0.13463999 0.11736 0.75599998
-0.1332 0.11736 0.75599998
-0.13176 0.11736 0.75599998
-0.13032 0.11736 0.75599998
-0.12887999 0.11736 0.75599998
-0.12744001 0.11736 0.75599998
-0.126 0.11736 0.75599998
-0.074842863 0.1311762 0.84500003
-0.073233344 0.1311762 0.84500003
-0.07162381 0.1311762 0.84500003
-0.069848567 0.13086569 0.84300011
-0.068242863 0.13086569 0.84300011
-0.06647905 0.1305552 0.84100002
-0.064877138 0.1305552 0.84100002
-0.063124768 0.13024481 0.83899999
-0.061379999 0.1299343 0.83700001
-0.05992857 0.13024481 0.83899999
-0.05833048 0.13024481 0.83899999
-0.056867622 0.1305552 0.84100002
-0.055134289 0.13024481 0.83899999
-0.053408571 0.1299343 0.83700001
-0.051814292 0.1299343 0.83700001
-0.050220001 0.1299343 0.83700001
-0.048625711 0.1299343 0.83700001
-0.047031429 0.1299343 0.83700001
-0.045437139 0.1299343 0.83700001
0.053644769 0.1106848 0.71300012
0.055002861 0.1106848 0.71300012
0.056202859 0.1103743 0.71100003
0.057719052 0.1106848 0.71300012
0.058911432 0.1103743 0.71100003
0.06026572 0.1103743 0.71100003
0.061533328 0.110219 0.70999998
0.062885717 0.110219 0.70999998
0.064057142 0.1099086 0.708
0.065405719 0.1099086 0.708
0.066754289 0.1099086 0.708
0.068102859 0.1099086 0.708
0.069451429 0.1099086 0.708
0.070800006 0.1099086 0.708
0.072148569 0.1099086 0.708
0.073704757 0.110219 0.70999998
0.075057149 0.110219 0.70999998
0.076194286 0.1099086 0.708
0.077761903 0.110219 0.70999998
0.079114303 0.110219 0.70999998
0.080580004 0.1103743 0.71100003
0.08181905 0.110219 0.70999998
0.083288573 0.1103743 0.71100003
0.084642857 0.1103743 0.71100003
0.085997149 0.1103743 0.71100003
0.087351426 0.1103743 0.71100003
0.088705719 0.1103743 0.71100003
0.089933343 0.110219 0.70999998
0.091414288 0.1103743 0.71100003
0.092768572 0.1103743 0.71100003
0.094122857 0.1103743 0.71100003
0.095477149 0.1103743 0.71100003
0.096831433 0.1103743 0.71100003
-0.29879999 0.1188 0.75599998
-0.29736 0.1188 0.75599998
-0.29592001 0.1188 0.75599998
-0.29448 0.1188 0.75599998
-0.29304001 0.1188 0.75599998
-0.29159999 0.1188 0.75599998
-0.29016 0.1188 0.75599998
-0.28872001 0.1188 0.75599998
-0.28727999 0.1188 0.75599998
-0.28584 0.1188 0.75599998
-0.28439999 0.1188 0.75599998
-0.28296 0.1188 0.75599998
-0.28152001 0.1188 0.75599998
-0.28007999 0.1188 0.75599998
-0.27864 0.1188 0.75599998
-0.27720001 0.1188 0.75599998
-0.27575999 0.1188 0.75599998
-0.27432001 0.1188 0.75599998
-0.27287999 0.1188 0.75599998
-0.27144 0.1188 0.75599998
-0.27000001 0.1188 0.75599998
-0.26855999 0.1188 0.75599998
-0.26712 0.1188 0.75599998
-0.26567999 0.1188 0.75599998
-0.2638905 0.1186429 0.75500011
-0.26245239 0.1186429 0.75500011
-0.26101431 0.1186429 0.75500011
-0.2595762 0.1186429 0.75500011
-0.25813809 0.1186429 0.75500011
-0.25670001 0.1186429 0.75500011
-0.2552619 0.1186429 0.75500011
-0.25382379 0.1186429 0.75500011
-0.25238571 0.1186429 0.75500011
-0.25094771 0.1186429 0.75500011
-0.2495095 0.1186429 0.75500011
-0.2484 0.1188 0.75599998
-0.24696 0.1188 0.75599998
-0.24552 0.1188 0.75599998
-0.24408001 0.1188 0.75599998
-0.24231911 0.1186429 0.75500011
-0.2412 0.1188 0.75599998
-0.23976 0.1188 0.75599998
-0.23831999 0.1188 0.75599998
-0.23688 0.1188 0.75599998
-0.23544 0.1188 0.75599998
-0.234 0.1188 0.75599998
-0.23255999 0.1188 0.75599998
-0.23112001 0.1188 0.75599998
-0.2293762 0.1186429 0.75500011
-0.2279381 0.1186429 0.75500011
-0.2265 0.1186429 0.75500011
-0.22506189 0.1186429 0.75500011
-0.2236238 0.1186429 0.75500011
-0.2221857 0.1186429 0.75500011
-0.2207476 0.1186429 0.75500011
-0.21930949 0.1186429 0.75500011
-0.2178714 0.1186429 0.75500011
-0.2164333 0.1186429 0.75500011
-0.21499529 0.1186429 0.75500011
-0.2135572 0.1186429 0.75500011
-0.2121191 0.1186429 0.75500011
-0.21068101 0.1186429 0.75500011
-0.2092429 0.1186429 0.75500011
-0.2078048 0.1186429 0.75500011
-0.2063667 0.1186429 0.75500011
-0.20492861 0.1186429 0.75500011
-0.2034905 0.1186429 0.75500011
-0.20151711 0.1183286 0.75300002
-0.2006143 0.1186429 0.75500011
-0.19944 0.1188 0.75599998
-0.1977381 0.1186429 0.75500011
-0.1963 0.1186429 0.75500011
-0.19512001 0.1188 0.75599998
-0.19368 0.1188 0.75599998
-0.19224 0.1188 0.75599998
-0.1905476 0.1186429 0.75500011
-0.18935999 0.1188 0.75599998
-0.18767139 0.1186429 0.75500011
-0.1862333 0.1186429 0.75500011
-0.18479531 0.1186429 0.75500011
-0.1833571 0.1186429 0.75500011
-0.1819191 0.1186429 0.75500011
-0.180481 0.1186429 0.75500011
-0.17904291 0.1186429 0.75500011
-0.17760479 0.1186429 0.75500011
-0.1761667 0.1186429 0.75500011
-0.1747286 0.1186429 0.75500011
-0.17352 0.1188 0.75599998
-0.17208 0.1188 0.75599998
-0.17064001 0.1188 0.75599998
-0.1692 0.1188 0.75599998
-0.16776 0.1188 0.75599998
-0.1661 0.1186429 0.75500011
-0.1646619 0.1186429 0.75500011
-0.1632238 0.1186429 0.75500011
-0.1613571 0.1183286 0.75300002
-0.1603476 0.1186429 0.75500011
-0.1589095 0.1186429 0.75500011
-0.1574714 0.1186429 0.75500011
-0.15624 0.1188 0.75599998
-0.1548 0.1188 0.75599998
-0.15335999 0.1188 0.75599998
-0.15192001 0.1188 0.75599998
-0.150281 0.1186429 0.75500011
-0.1488429 0.1186429 0.75500011
-0.1474048 0.1186429 0.75500011
-0.14596669 0.1186429 0.75500011
-0.1445286 0.1186429 0.75500011
-0.1430905 0.1186429 0.75500011
-0.14165241 0.1186429 0.75500011
-0.14021429 0.1186429 0.75500011
-0.1387762 0.1186429 0.75500011
-0.1373381 0.1186429 0.75500011
-0.13590001 0.1186429 0.75500011
-0.1341057 0.1183286 0.75300002
-0.1326714 0.1183286 0.75300002
-0.1312371 0.1183286 0.75300002
-0.1298029 0.1183286 0.75300002
-0.1281981 0.1181714 0.75199997
-0.1267657 0.1181714 0.75199997
-0.073233344 0.13278569 0.84500003
-0.07162381 0.13278569 0.84500003
-0.070014283 0.13278569 0.84500003
-0.068242863 0.1324714 0.84300011
-0.066637143 0.1324714 0.84300011
-0.064877138 0.1321571 0.84100002
-0.06327524 0.1321571 0.84100002
-0.061526671 0.1318429 0.83899999
-0.05992857 0.1318429 0.83899999
-0.05846953 0.1321571 0.84100002
-0.056867622 0.1321571 0.84100002
-0.055265721 0.1321571 0.84100002
-0.053536192 0.1318429 0.83899999
-0.051938102 0.1318429 0.83899999
-0.050340001 0.1318429 0.83899999
-0.048741911 0.1318429 0.83899999
-0.047143809 0.1318429 0.83899999
-0.045437139 0.1315286 0.83700001
0.05228667 0.1120429 0.71300012
0.053644769 0.1120429 0.71300012
0.05484857 0.1117286 0.71100003
0.056202859 0.1117286 0.71100003
0.05755714 0.1117286 0.71100003
0.05882857 0.1115714 0.70999998
0.060180951 0.1115714 0.70999998
0.061360002 0.1112571 0.708
0.062708572 0.1112571 0.708
0.064057142 0.1112571 0.708
0.065313332 0.1111 0.70700002
0.066660002 0.1111 0.70700002
0.068006672 0.1111 0.70700002
0.069353327 0.1111 0.70700002
0.070699997 0.1111 0.70700002
0.072046667 0.1111 0.70700002
0.073393337 0.1111 0.70700002
0.074845709 0.1112571 0.708
0.076086663 0.1111 0.70700002
0.077542856 0.1112571 0.708
0.078891426 0.1112571 0.708
0.080239996 0.1112571 0.708
0.081588566 0.1112571 0.708
0.083171427 0.1115714 0.70999998
0.084523819 0.1115714 0.70999998
0.085997149 0.1117286 0.71100003
0.087228566 0.1115714 0.70999998
0.088580951 0.1115714 0.70999998
0.089680001 0.1112571 0.708
0.09128572 0.1115714 0.70999998
0.092638098 0.1115714 0.70999998
0.093990467 0.1115714 0.70999998
0.095342867 0.1115714 0.70999998
0.1079686 0.1120429 0.71300012
0.1093267 0.1120429 0.71300012
-0.31214291 0.1192857 0.75000012
-0.3107143 0.1192857 0.75000012
-0.29840481 0.120081 0.75500011
-0.2969667 0.120081 0.75500011
-0.29552859 0.120081 0.75500011
-0.29409051 0.120081 0.75500011
-0.29304001 0.12024 0.75599998
-0.29159999 0.12024 0.75599998
-0.29016 0.12024 0.75599998
-0.28872001 0.12024 0.75599998
-0.28727999 0.12024 0.75599998
-0.28584 0.12024 0.75599998
-0.28439999 0.12024 0.75599998
-0.28296 0.12024 0.75599998
-0.2811476 0.120081 0.75500011
-0.27970949 0.120081 0.75500011
-0.2782715 0.120081 0.75500011
-0.27720001 0.12024 0.75599998
-0.27539521 0.120081 0.75500011
-0.27395719 0.120081 0.75500011
-0.27251911 0.120081 0.75500011
-0.27144 0.12024 0.75599998
-0.26964289 0.120081 0.75500011
-0.26820481 0.120081 0.75500011
-0.26605999 0.1197629 0.75300002
-0.2646257 0.1197629 0.75300002
-0.2631914 0.1197629 0.75300002
-0.26175711 0.1197629 0.75300002
-0.2603229 0.1197629 0.75300002
-0.2588886 0.1197629 0.75300002
-0.25745431 0.1197629 0.75300002
-0.25602001 0.1197629 0.75300002
-0.25458571 0.1197629 0.75300002
-0.25382379 0.120081 0.75500011
-0.25238571 0.120081 0.75500011
-0.25028291 0.1197629 0.75300002
-0.2488486 0.1197629 0.75300002
-0.2480714 0.120081 0.75500011
-0.2466334 0.120081 0.75500011
-0.2451953 0.120081 0.75500011
-0.2437572 0.120081 0.75500011
-0.24167711 0.1197629 0.75300002
-0.240881 0.120081 0.75500011
-0.2394429 0.120081 0.75500011
-0.23737431 0.1197629 0.75300002
-0.23656669 0.120081 0.75500011
-0.2351286 0.120081 0.75500011
-0.2336905 0.120081 0.75500011
-0.2322524 0.120081 0.75500011
-0.23081429 0.120081 0.75500011
-0.2293762 0.120081 0.75500011
-0.2279381 0.120081 0.75500011
-0.2265 0.120081 0.75500011
-0.22506189 0.120081 0.75500011
-0.2230314 0.1197629 0.75300002
-0.2221857 0.120081 0.75500011
-0.2201629 0.1197629 0.75300002
-0.2187286 0.1197629 0.75300002
-0.21729431 0.1197629 0.75300002
-0.21585999 0.1197629 0.75300002
-0.2144257 0.1197629 0.75300002
-0.2129914 0.1197629 0.75300002
-0.21155711 0.1197629 0.75300002
-0.2101229 0.1197629 0.75300002
-0.2086886 0.1197629 0.75300002
-0.2078048 0.120081 0.75500011
-0.2063667 0.120081 0.75500011
-0.20492861 0.120081 0.75500011
-0.2029514 0.1197629 0.75300002
-0.2020524 0.120081 0.75500011
-0.2006143 0.120081 0.75500011
-0.19917621 0.120081 0.75500011
-0.19721431 0.1197629 0.75300002
-0.19577999 0.1197629 0.75300002
-0.19408759 0.1196038 0.75199997
-0.1929114 0.1197629 0.75300002
-0.19147711 0.1197629 0.75300002
-0.1900429 0.1197629 0.75300002
-0.1886086 0.1197629 0.75300002
-0.18692569 0.1196038 0.75199997
-0.18549331 0.1196038 0.75199997
-0.18406101 0.1196038 0.75199997
-0.1826286 0.1196038 0.75199997
-0.1811962 0.1196038 0.75199997
-0.17976379 0.1196038 0.75199997
-0.1783314 0.1196038 0.75199997
-0.176899 0.1196038 0.75199997
-0.1754667 0.1196038 0.75199997
-0.1742657 0.1197629 0.75300002
-0.1728314 0.1197629 0.75300002
-0.1713971 0.1197629 0.75300002
-0.1699629 0.1197629 0.75300002
-0.1685286 0.1197629 0.75300002
-0.16709431 0.1197629 0.75300002
-0.16543999 0.1196038 0.75199997
-0.1640076 0.1196038 0.75199997
-0.1625752 0.1196038 0.75199997
-0.1611429 0.1196038 0.75199997
-0.1597105 0.1196038 0.75199997
-0.15827809 0.1196038 0.75199997
-0.1568457 0.1196038 0.75199997
-0.15561999 0.1197629 0.75300002
-0.1541857 0.1197629 0.75300002
-0.1527514 0.1197629 0.75300002
-0.1513171 0.1197629 0.75300002
-0.1498829 0.1197629 0.75300002
-0.1484486 0.1197629 0.75300002
-0.1470143 0.1197629 0.75300002
-0.14557999 0.1197629 0.75300002
-0.1441457 0.1197629 0.75300002
-0.1427114 0.1197629 0.75300002
-0.1412771 0.1197629 0.75300002
-0.1398429 0.1197629 0.75300002
-0.1384086 0.1197629 0.75300002
-0.1369743 0.1197629 0.75300002
-0.13553999 0.1197629 0.75300002
-0.1339276 0.1196038 0.75199997
-0.13249519 0.1196038 0.75199997
-0.1310629 0.1196038 0.75199997
-0.12963051 0.1196038 0.75199997
-0.1281981 0.1196038 0.75199997
-0.1267657 0.1196038 0.75199997
-0.070014283 0.1343952 0.84500003
-0.068242863 0.1340771 0.84300011
-0.066637143 0.1340771 0.84300011
-0.065031432 0.1340771 0.84300011
-0.06342572 0.1340771 0.84300011
-0.061673339 0.1337591 0.84100002
-0.060071431 0.1337591 0.84100002
-0.05846953 0.1337591 0.84100002
-0.056867622 0.1337591 0.84100002
-0.055265721 0.1337591 0.84100002
-0.053536192 0.133441 0.83899999
-0.051938102 0.133441 0.83899999
-0.050340001 0.133441 0.83899999
-0.048741911 0.133441 0.83899999
0.052066669 0.1129238 0.70999998
0.05326857 0.1126057 0.708
0.05461714 0.1126057 0.708
0.056123812 0.1129238 0.70999998
0.057476189 0.1129238 0.70999998
0.058662862 0.1126057 0.708
0.05992667 0.1124467 0.70700002
0.061273329 0.1124467 0.70700002
0.062619999 0.1124467 0.70700002
0.063966669 0.1124467 0.70700002
0.065313332 0.1124467 0.70700002
0.066471443 0.1121286 0.70499998
0.067814283 0.1121286 0.70499998
0.069157153 0.1121286 0.70499998
0.070500001 0.1121286 0.70499998
0.071842857 0.1121286 0.70499998
0.073393337 0.1124467 0.70700002
0.074740008 0.1124467 0.70700002
0.076086663 0.1124467 0.70700002
0.077433333 0.1124467 0.70700002
0.078891426 0.1126057 0.708
0.080239996 0.1126057 0.708
0.081473343 0.1124467 0.70700002
0.082937136 0.1126057 0.708
0.084285706 0.1126057 0.708
0.085634284 0.1126057 0.708
0.086982854 0.1126057 0.708
0.088206671 0.1124467 0.70700002
0.089553341 0.1124467 0.70700002
0.090899996 0.1124467 0.70700002
0.092377141 0.1126057 0.708
0.093593337 0.1124467 0.70700002
0.095074289 0.1126057 0.708
0.096422859 0.1126057 0.708
0.1049571 0.1130829 0.71100003
0.1063114 0.1130829 0.71100003
0.1076657 0.1130829 0.71100003
0.10902 0.1130829 0.71100003
0.1103743 0.1130829 0.71100003
0.1115714 0.1129238 0.70999998
0.1604829 0.1130829 0.71100003
-0.4869943 0.1364876 0.84799999
-0.4853791 0.1364876 0.84799999
-0.31357151 0.1207143 0.75000012
-0.3113105 0.1203924 0.74800003
-0.3107143 0.1207143 0.75000012
-0.3092857 0.1207143 0.75000012
-0.29121429 0.1215191 0.75500011
-0.28977621 0.1215191 0.75500011
-0.28833809 0.1215191 0.75500011
-0.28727999 0.12168 0.75599998
-0.2854619 0.1215191 0.75500011
-0.28402391 0.1215191 0.75500011
-0.28258571 0.1215191 0.75500011
-0.2804029 0.1211971 0.75300002
-0.2789686 0.1211971 0.75300002
-0.2782715 0.1215191 0.75500011
-0.27683339 0.1215191 0.75500011
-0.27466571 0.1211971 0.75300002
-0.27323139 0.1211971 0.75300002
-0.27179709 0.1211971 0.75300002
-0.27036291 0.1211971 0.75300002
-0.26892859 0.1211971 0.75300002
-0.26749429 0.1211971 0.75300002
-0.26605999 0.1211971 0.75300002
-0.2646257 0.1211971 0.75300002
-0.26284191 0.1210362 0.75199997
-0.26140949 0.1210362 0.75199997
-0.25997719 0.1210362 0.75199997
-0.2585448 0.1210362 0.75199997
-0.25711241 0.1210362 0.75199997
-0.25567999 0.1210362 0.75199997
-0.25458571 0.1211971 0.75300002
-0.25315139 0.1211971 0.75300002
-0.25171721 0.1211971 0.75300002
-0.25028291 0.1211971 0.75300002
-0.2488486 0.1211971 0.75300002
-0.24741431 0.1211971 0.75300002
-0.24597999 0.1211971 0.75300002
-0.2445457 0.1211971 0.75300002
-0.2431114 0.1211971 0.75300002
-0.24167711 0.1211971 0.75300002
-0.2402429 0.1211971 0.75300002
-0.2388086 0.1211971 0.75300002
-0.23737431 0.1211971 0.75300002
-0.23593999 0.1211971 0.75300002
-0.2345057 0.1211971 0.75300002
-0.2330714 0.1211971 0.75300002
-0.23163719 0.1211971 0.75300002
-0.2302029 0.1211971 0.75300002
-0.2287686 0.1211971 0.75300002
-0.22703239 0.1210362 0.75199997
-0.2256 0.1210362 0.75199997
-0.2241676 0.1210362 0.75199997
-0.2227352 0.1210362 0.75199997
-0.22159711 0.1211971 0.75300002
-0.2201629 0.1211971 0.75300002
-0.2184381 0.1210362 0.75199997
-0.21642859 0.1207143 0.75000012
-0.215 0.1207143 0.75000012
-0.2135714 0.1207143 0.75000012
-0.21270861 0.1210362 0.75199997
-0.2112762 0.1210362 0.75199997
-0.20928571 0.1207143 0.75000012
-0.2084114 0.1210362 0.75199997
-0.2069791 0.1210362 0.75199997
-0.20554671 0.1210362 0.75199997
-0.2041143 0.1210362 0.75199997
-0.2026819 0.1210362 0.75199997
-0.2012495 0.1210362 0.75199997
-0.1992857 0.1207143 0.75000012
-0.1978572 0.1207143 0.75000012
-0.1964286 0.1207143 0.75000012
-0.19499999 0.1207143 0.75000012
-0.1935714 0.1207143 0.75000012
-0.1921429 0.1207143 0.75000012
-0.1907143 0.1207143 0.75000012
-0.1892857 0.1207143 0.75000012
-0.1878572 0.1207143 0.75000012
-0.18642861 0.1207143 0.75000012
-0.185 0.1207143 0.75000012
-0.18406101 0.1210362 0.75199997
-0.1826286 0.1210362 0.75199997
-0.1811962 0.1210362 0.75199997
-0.17976379 0.1210362 0.75199997
-0.1783314 0.1210362 0.75199997
-0.176899 0.1210362 0.75199997
-0.1754667 0.1210362 0.75199997
-0.1740343 0.1210362 0.75199997
-0.17260189 0.1210362 0.75199997
-0.1711695 0.1210362 0.75199997
-0.1697372 0.1210362 0.75199997
-0.1683048 0.1210362 0.75199997
-0.1668724 0.1210362 0.75199997
-0.16543999 0.1210362 0.75199997
-0.1635714 0.1207143 0.75000012
-0.1621429 0.1207143 0.75000012
-0.1607143 0.1207143 0.75000012
-0.1597105 0.1210362 0.75199997
-0.15785711 0.1207143 0.75000012
-0.1568457 0.1210362 0.75199997
-0.1554133 0.1210362 0.75199997
-0.153981 0.1210362 0.75199997
-0.1525486 0.1210362 0.75199997
-0.15111621 0.1210362 0.75199997
-0.1496838 0.1210362 0.75199997
-0.1482514 0.1210362 0.75199997
-0.1468191 0.1210362 0.75199997
-0.1453867 0.1210362 0.75199997
-0.14395431 0.1210362 0.75199997
-0.1425219 0.1210362 0.75199997
-0.1410895 0.1210362 0.75199997
-0.1396571 0.1210362 0.75199997
-0.1382248 0.1210362 0.75199997
-0.13679241 0.1210362 0.75199997
-0.13500001 0.1207143 0.75000012
-0.1335714 0.1207143 0.75000012
-0.1321429 0.1207143 0.75000012
-0.1303657 0.1203924 0.74800003
-0.12928569 0.1207143 0.75000012
-0.1275162 0.1203924 0.74800003
-0.1259229 0.1202314 0.74699998
-0.1245 0.1202314 0.74699998
-0.065031432 0.1356829 0.84300011
-0.06342572 0.1356829 0.84300011
-0.061673339 0.135361 0.84100002
-0.060071431 0.135361 0.84100002
-0.05846953 0.135361 0.84100002
-0.056867622 0.135361 0.84100002
0.050714292 0.1142762 0.70999998
0.052140001 0.1144371 0.71100003
0.05349429 0.1144371 0.71100003
0.05461714 0.1139543 0.708
0.05596571 0.1139543 0.708
0.05731428 0.1139543 0.708
0.058662862 0.1139543 0.708
0.05992667 0.1137933 0.70700002
0.061273329 0.1137933 0.70700002
0.062442861 0.1134714 0.70499998
0.063785717 0.1134714 0.70499998
0.065128572 0.1134714 0.70499998
0.066471443 0.1134714 0.70499998
0.067718104 0.1133105 0.70400012
0.069157153 0.1134714 0.70499998
0.070500001 0.1134714 0.70499998
0.071842857 0.1134714 0.70499998
0.073185712 0.1134714 0.70499998
0.074528567 0.1134714 0.70499998
0.075871438 0.1134714 0.70499998
0.077214293 0.1134714 0.70499998
0.078780003 0.1137933 0.70700002
0.079899997 0.1134714 0.70499998
0.081242867 0.1134714 0.70499998
0.082585707 0.1134714 0.70499998
0.083928578 0.1134714 0.70499998
0.085271433 0.1134714 0.70499998
0.086614288 0.1134714 0.70499998
0.087957136 0.1134714 0.70499998
0.089173339 0.1133105 0.70400012
0.090642862 0.1134714 0.70499998
0.092246667 0.1137933 0.70700002
0.093328573 0.1134714 0.70499998
0.094939999 0.1137933 0.70700002
0.096286669 0.1137933 0.70700002
0.097771429 0.1139543 0.708
0.1007524 0.1142762 0.70999998
0.1021048 0.1142762 0.70999998
0.1034572 0.1142762 0.70999998
0.1048095 0.1142762 0.70999998
0.1061619 0.1142762 0.70999998
0.1075143 0.1142762 0.70999998
0.1088667 0.1142762 0.70999998
0.110219 0.1142762 0.70999998
0.1112571 0.1139543 0.708
0.1129238 0.1142762 0.70999998
-0.49022481 0.1381029 0.84799999
-0.4869943 0.1381029 0.84799999
-0.315 0.1221429 0.75000012
-0.31357151 0.1221429 0.75000012
-0.3107143 0.1221429 0.75000012
-0.3092857 0.1221429 0.75000012
-0.28690001 0.1229572 0.75500011
-0.2847057 0.1226314 0.75300002
-0.2832714 0.1226314 0.75300002
-0.2818372 0.1226314 0.75300002
-0.2804029 0.1226314 0.75300002
-0.2785981 0.1224686 0.75199997
-0.27716571 0.1224686 0.75199997
-0.27573341 0.1224686 0.75199997
-0.27430099 0.1224686 0.75199997
-0.2728686 0.1224686 0.75199997
-0.27143621 0.1224686 0.75199997
-0.2700038 0.1224686 0.75199997
-0.26857141 0.1224686 0.75199997
-0.26713899 0.1224686 0.75199997
-0.26499999 0.1221429 0.75000012
-0.2642743 0.1224686 0.75199997
-0.2621429 0.1221429 0.75000012
-0.26071429 0.1221429 0.75000012
-0.25928569 0.1221429 0.75000012
-0.2578572 0.1221429 0.75000012
-0.25424761 0.1224686 0.75199997
-0.25281519 0.1224686 0.75199997
-0.2478572 0.1221429 0.75000012
-0.24642859 0.1221429 0.75000012
-0.245 0.1221429 0.75000012
-0.2435714 0.1221429 0.75000012
-0.2421429 0.1221429 0.75000012
-0.2407143 0.1221429 0.75000012
-0.23928569 0.1221429 0.75000012
-0.2378571 0.1221429 0.75000012
-0.2364286 0.1221429 0.75000012
-0.235 0.1221429 0.75000012
-0.2335714 0.1221429 0.75000012
-0.2321429 0.1221429 0.75000012
-0.23071431 0.1221429 0.75000012
-0.2292857 0.1221429 0.75000012
-0.2278572 0.1221429 0.75000012
-0.2264286 0.1221429 0.75000012
-0.22499999 0.1221429 0.75000012
-0.2235714 0.1221429 0.75000012
-0.2221429 0.1221429 0.75000012
-0.2207143 0.1221429 0.75000012
-0.2192857 0.1221429 0.75000012
-0.2178572 0.1221429 0.75000012
-0.21642859 0.1221429 0.75000012
-0.215 0.1221429 0.75000012
-0.2135714 0.1221429 0.75000012
-0.2121429 0.1221429 0.75000012
-0.2107143 0.1221429 0.75000012
-0.20928571 0.1221429 0.75000012
-0.20785721 0.1221429 0.75000012
-0.2064286 0.1221429 0.75000012
-0.205 0.1221429 0.75000012
-0.20357139 0.1221429 0.75000012
-0.20214289 0.1221429 0.75000012
-0.20071431 0.1221429 0.75000012
-0.1992857 0.1221429 0.75000012
-0.1978572 0.1221429 0.75000012
-0.1964286 0.1221429 0.75000012
-0.19499999 0.1221429 0.75000012
-0.1930552 0.1218171 0.74800003
-0.1916305 0.1218171 0.74800003
-0.1907143 0.1221429 0.75000012
-0.1887809 0.1218171 0.74800003
-0.1878572 0.1221429 0.75000012
-0.1859314 0.1218171 0.74800003
-0.1845067 0.1218171 0.74800003
-0.1835714 0.1221429 0.75000012
-0.1821429 0.1221429 0.75000012
-0.18071429 0.1221429 0.75000012
-0.17928571 0.1221429 0.75000012
-0.1773829 0.1218171 0.74800003
-0.1764286 0.1221429 0.75000012
-0.175 0.1221429 0.75000012
-0.17357139 0.1221429 0.75000012
-0.17214289 0.1221429 0.75000012
-0.170259 0.1218171 0.74800003
-0.1688343 0.1218171 0.74800003
-0.1678572 0.1221429 0.75000012
-0.1664286 0.1221429 0.75000012
-0.16500001 0.1221429 0.75000012
-0.1631352 0.1218171 0.74800003
-0.1617105 0.1218171 0.74800003
-0.1607143 0.1221429 0.75000012
-0.15928569 0.1221429 0.75000012
-0.15785711 0.1221429 0.75000012
-0.15642861 0.1221429 0.75000012
-0.155 0.1221429 0.75000012
-0.1535714 0.1221429 0.75000012
-0.1521429 0.1221429 0.75000012
-0.15071429 0.1221429 0.75000012
-0.1492857 0.1221429 0.75000012
-0.1478572 0.1221429 0.75000012
-0.1464286 0.1221429 0.75000012
-0.145 0.1221429 0.75000012
-0.14395431 0.1224686 0.75199997
-0.1425219 0.1224686 0.75199997
-0.1407143 0.1221429 0.75000012
-0.1392857 0.1221429 0.75000012
-0.1378572 0.1221429 0.75000012
-0.13642859 0.1221429 0.75000012
-0.13500001 0.1221429 0.75000012
-0.1332152 0.1218171 0.74800003
-0.1317905 0.1218171 0.74800003
-0.1301914 0.1216543 0.74699998
-0.12876859 0.1216543 0.74699998
-0.1273457 0.1216543 0.74699998
-0.12558571 0.1213286 0.74500012
-0.1241667 0.1213286 0.74500012
-0.06182 0.1372886 0.84300011
-0.060214289 0.1372886 0.84300011
0.05057143 0.1153029 0.708
0.05192 0.1153029 0.708
0.05326857 0.1153029 0.708
0.05461714 0.1153029 0.708
0.055886671 0.11514 0.70700002
0.05723333 0.11514 0.70700002
0.05858 0.11514 0.70700002
0.05992667 0.11514 0.70700002
0.061013341 0.1146514 0.70400012
0.062354289 0.1146514 0.70400012
0.063604757 0.1144886 0.70300001
0.064943813 0.1144886 0.70300001
0.066282853 0.1144886 0.70300001
0.067621902 0.1144886 0.70300001
0.068960957 0.1144886 0.70300001
0.070299998 0.1144886 0.70300001
0.071639054 0.1144886 0.70300001
0.072978087 0.1144886 0.70300001
0.074422859 0.1146514 0.70400012
0.075763807 0.1146514 0.70400012
0.07710477 0.1146514 0.70400012
0.078557149 0.1148143 0.70499998
0.079899997 0.1148143 0.70499998
0.081127621 0.1146514 0.70400012
0.082468577 0.1146514 0.70400012
0.083809532 0.1146514 0.70400012
0.08515048 0.1146514 0.70400012
0.086491443 0.1146514 0.70400012
0.087832376 0.1146514 0.70400012
0.089173339 0.1146514 0.70400012
0.090514287 0.1146514 0.70400012
0.091985717 0.1148143 0.70499998
0.093328573 0.1148143 0.70499998
0.094671443 0.1148143 0.70499998
0.096286669 0.11514 0.70700002
0.097633332 0.11514 0.70700002
0.099120013 0.1153029 0.708
0.1004686 0.1153029 0.708
0.1018171 0.1153029 0.708
0.1031657 0.1153029 0.708
0.1045143 0.1153029 0.708
0.1058629 0.1153029 0.708
0.1072114 0.1153029 0.708
0.10856 0.1153029 0.708
0.1099086 0.1153029 0.708
0.1111 0.11514 0.70700002
0.1126057 0.1153029 0.708
0.1139543 0.1153029 0.708
0.1153029 0.1153029 0.708
0.1166514 0.1153029 0.708
0.118 0.1153029 0.708
0.1193486 0.1153029 0.708
0.1206971 0.1153029 0.708
0.1220457 0.1153029 0.708
0.1233943 0.1153029 0.708
0.1247429 0.1153029 0.708
0.12609141 0.1153029 0.708
0.12878861 0.1153029 0.708
0.1301371 0.1153029 0.708
0.1382286 0.1153029 0.708
0.1534953 0.1156286 0.70999998
0.16654859 0.1153029 0.708
0.16789711 0.1153029 0.708
0.16924571 0.1153029 0.708
-0.26286861 0.1232419 0.74800003
-0.26144379 0.1232419 0.74800003
-0.25967139 0.1230771 0.74699998
-0.2582486 0.1230771 0.74699998
-0.25682569 0.1230771 0.74699998
-0.24434669 0.1232419 0.74800003
-0.2435714 0.1235714 0.75000012
-0.2414971 0.1232419 0.74800003
-0.2400724 0.1232419 0.74800003
-0.2386476 0.1232419 0.74800003
-0.2378571 0.1235714 0.75000012
-0.2364286 0.1235714 0.75000012
-0.2343733 0.1232419 0.74800003
-0.2329486 0.1232419 0.74800003
-0.2315238 0.1232419 0.74800003
-0.2300991 0.1232419 0.74800003
-0.22867429 0.1232419 0.74800003
-0.2272495 0.1232419 0.74800003
-0.2258248 0.1232419 0.74800003
-0.2244 0.1232419 0.74800003
-0.22297519 0.1232419 0.74800003
-0.2221429 0.1235714 0.75000012
-0.2207143 0.1235714 0.75000012
-0.2192857 0.1235714 0.75000012
-0.2178572 0.1235714 0.75000012
-0.21642859 0.1235714 0.75000012
-0.215 0.1235714 0.75000012
-0.2135714 0.1235714 0.75000012
-0.2121429 0.1235714 0.75000012
-0.2101524 0.1232419 0.74800003
-0.2087276 0.1232419 0.74800003
-0.20702571 0.1230771 0.74699998
-0.2056029 0.1230771 0.74699998
-0.2036334 0.1227476 0.74500012
-0.20357139 0.1235714 0.75000012
-0.2013343 0.1230771 0.74699998
-0.1993762 0.1227476 0.74500012
-0.19848859 0.1230771 0.74699998
-0.1978572 0.1235714 0.75000012
-0.19590481 0.1232419 0.74800003
-0.19448 0.1232419 0.74800003
-0.1927972 0.1230771 0.74699998
-0.1913743 0.1230771 0.74699998
-0.19020569 0.1232419 0.74800003
-0.1885286 0.1230771 0.74699998
-0.1873562 0.1232419 0.74800003
-0.18568289 0.1230771 0.74699998
-0.1845067 0.1232419 0.74800003
-0.1830819 0.1232419 0.74800003
-0.1816572 0.1232419 0.74800003
-0.18023241 0.1232419 0.74800003
-0.1788076 0.1232419 0.74800003
-0.1771457 0.1230771 0.74699998
-0.1759581 0.1232419 0.74800003
-0.1743 0.1230771 0.74699998
-0.1728771 0.1230771 0.74699998
-0.1714543 0.1230771 0.74699998
-0.1700314 0.1230771 0.74699998
-0.16860861 0.1230771 0.74699998
-0.16718569 0.1230771 0.74699998
-0.1657629 0.1230771 0.74699998
-0.16434 0.1230771 0.74699998
-0.16291711 0.1230771 0.74699998
-0.1614943 0.1230771 0.74699998
-0.1602857 0.1232419 0.74800003
-0.158861 0.1232419 0.74800003
-0.15743621 0.1232419 0.74800003
-0.15580291 0.1230771 0.74699998
-0.15437999 0.1230771 0.74699998
-0.1529572 0.1230771 0.74699998
-0.1517372 0.1232419 0.74800003
-0.15031239 0.1232419 0.74800003
-0.1488876 0.1232419 0.74800003
-0.1474629 0.1232419 0.74800003
-0.1460381 0.1232419 0.74800003
-0.1446133 0.1232419 0.74800003
-0.14357141 0.1235714 0.75000012
-0.14214291 0.1235714 0.75000012
-0.140339 0.1232419 0.74800003
-0.1389143 0.1232419 0.74800003
-0.1374895 0.1232419 0.74800003
-0.1360648 0.1232419 0.74800003
-0.13463999 0.1232419 0.74800003
-0.13303711 0.1230771 0.74699998
-0.1316143 0.1230771 0.74699998
-0.12984291 0.1227476 0.74500012
-0.12876859 0.1230771 0.74699998
-0.1270048 0.1227476 0.74500012
-0.12558571 0.1227476 0.74500012
-0.1241667 0.1227476 0.74500012
0.04922286 0.1166514 0.708
0.05057143 0.1166514 0.708
0.051846672 0.1164867 0.70700002
0.053193331 0.1164867 0.70700002
0.054540001 0.1164867 0.70700002
0.05572857 0.1161571 0.70499998
0.057071429 0.1161571 0.70499998
0.05833143 0.1159924 0.70400012
0.05958762 0.1158276 0.70300001
0.060926661 0.1158276 0.70300001
0.062088571 0.1154981 0.70099998
0.063423812 0.1154981 0.70099998
0.064759053 0.1154981 0.70099998
0.066094287 0.1154981 0.70099998
0.067429528 0.1154981 0.70099998
0.068764761 0.1154981 0.70099998
0.070100002 0.1154981 0.70099998
0.071435243 0.1154981 0.70099998
0.072770476 0.1154981 0.70099998
0.07431715 0.1158276 0.70300001
0.075440958 0.1154981 0.70099998
0.076995239 0.1158276 0.70300001
0.078334287 0.1158276 0.70300001
0.079673328 0.1158276 0.70300001
0.081012383 0.1158276 0.70300001
0.082351431 0.1158276 0.70300001
0.083690472 0.1158276 0.70300001
0.084787622 0.1154981 0.70099998
0.086368583 0.1158276 0.70300001
0.087707616 0.1158276 0.70300001
0.089046657 0.1158276 0.70300001
0.090385713 0.1158276 0.70300001
0.091855243 0.1159924 0.70400012
0.093196198 0.1159924 0.70400012
0.094537146 0.1159924 0.70400012
0.096014284 0.1161571 0.70499998
0.097357146 0.1161571 0.70499998
0.098980002 0.1164867 0.70700002
0.1003267 0.1164867 0.70700002
0.1016733 0.1164867 0.70700002
0.10302 0.1164867 0.70700002
0.1043667 0.1164867 0.70700002
0.1057133 0.1164867 0.70700002
0.10706 0.1164867 0.70700002
0.1084067 0.1164867 0.70700002
0.1097533 0.1164867 0.70700002
0.1111 0.1164867 0.70700002
0.1124467 0.1164867 0.70700002
0.1137933 0.1164867 0.70700002
0.11514 0.1164867 0.70700002
0.1164867 0.1164867 0.70700002
0.1178333 0.1164867 0.70700002
0.11918 0.1164867 0.70700002
0.1205267 0.1164867 0.70700002
0.1218733 0.1164867 0.70700002
0.12322 0.1164867 0.70700002
0.1245667 0.1164867 0.70700002
0.12591331 0.1164867 0.70700002
0.12744001 0.1166514 0.708
0.12860671 0.1164867 0.70700002
0.12995329 0.1164867 0.70700002
0.1313 0.1164867 0.70700002
0.1339933 0.1164867 0.70700002
0.1366867 0.1164867 0.70700002
0.1380333 0.1164867 0.70700002
0.13957711 0.1166514 0.708
0.14092571 0.1166514 0.708
0.1426762 0.116981 0.70999998
0.1440286 0.116981 0.70999998
0.14880671 0.1164867 0.70700002
0.15015329 0.1164867 0.70700002
0.1515 0.1164867 0.70700002
0.15284669 0.1164867 0.70700002
0.1649667 0.1164867 0.70700002
0.16631331 0.1164867 0.70700002
0.16766 0.1164867 0.70700002
0.16900671 0.1164867 0.70700002
0.17035329 0.1164867 0.70700002
0.1717 0.1164867 0.70700002
0.1725572 0.1161571 0.70499998
0.17389999 0.1161571 0.70499998
0.1752429 0.1161571 0.70499998
0.1792714 0.1161571 0.70499998
0.18061429 0.1161571 0.70499998
0.1865133 0.1164867 0.70700002
0.18786 0.1164867 0.70700002
0.1892067 0.1164867 0.70700002
0.19055329 0.1164867 0.70700002
0.1913572 0.1161571 0.70499998
0.1927 0.1161571 0.70499998
0.19376761 0.1159924 0.70400012
0.19510861 0.1159924 0.70400012
-0.26251721 0.1245 0.74699998
-0.2610943 0.1245 0.74699998
-0.25967139 0.1245 0.74699998
-0.2582486 0.1245 0.74699998
-0.25613809 0.1241667 0.74500012
-0.25471899 0.1241667 0.74500012
-0.25330001 0.1241667 0.74500012
-0.251881 0.1241667 0.74500012
-0.24434669 0.1246667 0.74800003
-0.2429219 0.1246667 0.74800003
-0.2411743 0.1245 0.74699998
-0.2397514 0.1245 0.74699998
-0.23832861 0.1245 0.74699998
-0.2372229 0.1246667 0.74800003
-0.23579811 0.1246667 0.74800003
-0.23406 0.1245 0.74699998
-0.2326372 0.1245 0.74699998
-0.2312143 0.1245 0.74699998
-0.2297914 0.1245 0.74699998
-0.22867429 0.1246667 0.74800003
-0.2272495 0.1246667 0.74800003
-0.22552291 0.1245 0.74699998
-0.22409999 0.1245 0.74699998
-0.22297519 0.1246667 0.74800003
-0.22155049 0.1246667 0.74800003
-0.22012571 0.1246667 0.74800003
-0.2187009 0.1246667 0.74800003
-0.2172762 0.1246667 0.74800003
-0.2158514 0.1246667 0.74800003
-0.2144267 0.1246667 0.74800003
-0.21300191 0.1246667 0.74800003
-0.2115771 0.1246667 0.74800003
-0.2101524 0.1246667 0.74800003
-0.2084486 0.1245 0.74699998
-0.20702571 0.1245 0.74699998
-0.20505241 0.1241667 0.74500012
-0.2036334 0.1241667 0.74500012
-0.2022143 0.1241667 0.74500012
-0.20079529 0.1241667 0.74500012
-0.19884101 0.1238333 0.74299997
-0.1979572 0.1241667 0.74500012
-0.19653811 0.1241667 0.74500012
-0.1951191 0.1241667 0.74500012
-0.19422001 0.1245 0.74699998
