# .PCD v0.7 - Point Cloud Data file format
VERSION 0.7
FIELDS x y z
SIZE 4 4 4
TYPE F F F
COUNT 1 1 1
WIDTH 1498
HEIGHT 1
VIEWPOINT 0 0 0 1 0 0 0
POINTS 1498
DATA ascii
-0.03008572 0.1118572 0.81000012
-0.02868381 0.1124095 0.81400001
-0.02716667 0.1125476 0.81500012
-0.025677141 0.1128238 0.81699997
-0.02423905 0.1133762 0.82099998
-0.022730481 0.1136524 0.82300001
-0.02121429 0.1139286 0.82499999
-0.01964286 0.1139286 0.82499999
-0.01815905 0.114481 0.82900012
-0.016620001 0.1147571 0.83099997
-0.01507333 0.1150333 0.83300012
-0.01351905 0.1153095 0.83499998
-0.01192857 0.1153095 0.83499998
-0.01036286 0.1155857 0.83700001
-0.0087685715 0.1155857 0.83700001
-0.0071742861 0.1155857 0.83700001
-0.0055933329 0.1158619 0.83899999
-0.0039952379 0.1158619 0.83899999
-0.002397143 0.1158619 0.83899999
-0.00080095237 0.1161381 0.84100002
0.00080285722 0.1164143 0.84300011
0.002408572 0.1164143 0.84300011
0.0040238099 0.1166905 0.84500003
0.0056533329 0.1171048 0.84799999
0.0072685722 0.1171048 0.84799999
0.0088838106 0.1171048 0.84799999
0.01049905 0.1171048 0.84799999
0.01214286 0.1173809 0.85000002
0.01376191 0.1173809 0.85000002
0.01538095 0.1173809 0.85000002
0.017000001 0.1173809 0.85000002
0.018662861 0.1176571 0.85200012
0.020285711 0.1176571 0.85200012
0.02190857 0.1176571 0.85200012
0.023531429 0.1176571 0.85200012
0.025213329 0.1179333 0.85399997
0.026839999 0.1179333 0.85399997
0.02846667 0.1179333 0.85399997
0.030093331 0.1179333 0.85399997
0.031720001 0.1179333 0.85399997
0.033346672 0.1179333 0.85399997
0.035055239 0.1182095 0.85600013
0.03668572 0.1182095 0.85600013
0.03831619 0.1182095 0.85600013
0.039853331 0.1179333 0.85399997
0.041480001 0.1179333 0.85399997
0.043106671 0.1179333 0.85399997
0.044733331 0.1179333 0.85399997
0.046251431 0.1176571 0.85200012
0.04787429 0.1176571 0.85200012
0.049613331 0.1179333 0.85399997
0.051120002 0.1176571 0.85200012
0.052742861 0.1176571 0.85200012
0.05449333 0.1179333 0.85399997
0.056120001 0.1179333 0.85399997
0.057746671 0.1179333 0.85399997
0.059234291 0.1176571 0.85200012
0.06071429 0.1173809 0.85000002
0.062626667 0.1179333 0.85399997
0.063952379 0.1173809 0.85000002
0.065571427 0.1173809 0.85000002
0.067190483 0.1173809 0.85000002
0.068809517 0.1173809 0.85000002
0.070594303 0.1176571 0.85200012
0.072047621 0.1173809 0.85000002
0.073493339 0.1171048 0.84799999
0.074842863 0.1166905 0.84500003
0.076452382 0.1166905 0.84500003
0.077877149 0.1164143 0.84300011
0.079482861 0.1164143 0.84300011
0.080896191 0.1161381 0.84100002
0.082498103 0.1161381 0.84100002
0.083899997 0.1158619 0.83899999
0.085498087 0.1158619 0.83899999
0.086888567 0.1155857 0.83700001
0.088482857 0.1155857 0.83700001
0.090077139 0.1155857 0.83700001
0.091452383 0.1153095 0.83499998
0.092597149 0.1147571 0.83099997
0.093953341 0.114481 0.82900012
0.095071428 0.1139286 0.82499999
0.096408583 0.1136524 0.82300001
0.097976193 0.1136524 0.82300001
0.09954381 0.1136524 0.82300001
0.1008657 0.1133762 0.82099998
0.1024295 0.1133762 0.82099998
0.10374 0.1131 0.81900012
0.1050429 0.1128238 0.81699997
0.1062076 0.1124095 0.81400001
0.1074933 0.1121333 0.81199998
0.1087714 0.1118572 0.81000012
0.1100419 0.111581 0.80800003
0.1113048 0.1113048 0.80600011
0.11256 0.1110286 0.80400002
0.1138076 0.1107524 0.80199999
0.11476 0.1102 0.79799998
0.1161343 0.1100619 0.79700011
0.1173571 0.1097857 0.79500002
0.1185724 0.1095095 0.79299998
0.11978 0.1092333 0.79100001
0.12098 0.1089571 0.78899997
0.1220171 0.1085429 0.78600001
0.1232 0.1082667 0.78399998
0.1246933 0.1082667 0.78399998
0.1261867 0.1082667 0.78399998
0.1248895 0.1046762 0.75800002
0.1263333 0.1046762 0.75800002
0.12744001 0.1044 0.75599998
0.12887999 0.1044 0.75599998
-0.040027618 0.11102 0.79299998
-0.03851714 0.11102 0.79299998
-0.037426669 0.11228 0.80199999
-0.035988569 0.11256 0.80400002
-0.034542859 0.11284 0.80600011
-0.033007622 0.11284 0.80600011
-0.031550478 0.11312 0.80800003
-0.030160001 0.11368 0.81199998
-0.02868381 0.11396 0.81400001
-0.027233331 0.11438 0.81699997
-0.025739999 0.11466 0.81900012
-0.02423905 0.11494 0.82099998
-0.022785719 0.1155 0.82499999
-0.02121429 0.1155 0.82499999
-0.01969048 0.11578 0.82700002
-0.01815905 0.11606 0.82900012
-0.016620001 0.11634 0.83099997
-0.01510952 0.1169 0.83499998
-0.01355143 0.11718 0.83700001
-0.01195714 0.11718 0.83700001
-0.01036286 0.11718 0.83700001
-0.0087685715 0.11718 0.83700001
-0.0071914289 0.11746 0.83899999
-0.0055933329 0.11746 0.83899999
-0.0039952379 0.11746 0.83899999
-0.0024028569 0.11774 0.84100002
-0.00080285722 0.11802 0.84300011
0.00080476189 0.1183 0.84500003
0.0024228571 0.11872 0.84799999
0.004038095 0.11872 0.84799999
0.0056533329 0.11872 0.84799999
0.0072857141 0.119 0.85000002
0.0089047626 0.119 0.85000002
0.01052381 0.119 0.85000002
0.01217143 0.11928 0.85200012
0.01376191 0.119 0.85000002
0.01538095 0.119 0.85000002
0.017000001 0.119 0.85000002
0.018662861 0.11928 0.85200012
0.020285711 0.11928 0.85200012
0.02196 0.11956 0.85399997
0.02358667 0.11956 0.85399997
0.025213329 0.11956 0.85399997
0.026839999 0.11956 0.85399997
0.02853334 0.11984 0.85600013
0.030093331 0.11956 0.85399997
0.031794291 0.11984 0.85600013
0.033424761 0.11984 0.85600013
0.044733331 0.11956 0.85399997
0.046251431 0.11928 0.85200012
0.047986671 0.11956 0.85399997
0.049613331 0.11956 0.85399997
0.051120002 0.11928 0.85200012
0.052866671 0.11956 0.85399997
0.057746671 0.11956 0.85399997
0.05937333 0.11956 0.85399997
0.061000001 0.11956 0.85399997
0.062626667 0.11956 0.85399997
0.064253338 0.11956 0.85399997
0.065880001 0.11956 0.85399997
0.067506671 0.11956 0.85399997
0.068971433 0.11928 0.85200012
0.070594303 0.11928 0.85200012
0.072217137 0.11928 0.85200012
0.073493339 0.11872 0.84799999
0.075108573 0.11872 0.84799999
0.076452382 0.1183 0.84500003
0.078061908 0.1183 0.84500003
0.079671443 0.1183 0.84500003
0.081088573 0.11802 0.84300011
0.082694277 0.11802 0.84300011
0.084100001 0.11774 0.84100002
0.085701913 0.11774 0.84100002
0.087096192 0.11746 0.83899999
0.088694289 0.11746 0.83899999
0.090292387 0.11746 0.83899999
0.09167143 0.11718 0.83700001
0.093042873 0.1169 0.83499998
0.093953341 0.11606 0.82900012
0.095301896 0.11578 0.82700002
0.096642859 0.1155 0.82499999
0.098214291 0.1155 0.82499999
0.099785723 0.1155 0.82499999
0.1011114 0.11522 0.82300001
0.1026791 0.11522 0.82300001
0.1039933 0.11494 0.82099998
0.1050429 0.11438 0.81699997
0.1063381 0.1141 0.81500012
0.1077581 0.11396 0.81400001
0.10904 0.11368 0.81199998
0.1103143 0.1134 0.81000012
0.111581 0.11312 0.80800003
0.11284 0.11284 0.80600011
0.1138076 0.11228 0.80199999
0.11476 0.11172 0.79799998
0.1161343 0.11158 0.79700011
0.1173571 0.1113 0.79500002
0.1185724 0.11102 0.79299998
0.11978 0.11074 0.79100001
0.1208267 0.11032 0.78799999
0.1220171 0.11004 0.78600001
0.1232 0.10976 0.78399998
0.1246933 0.10976 0.78399998
0.1248895 0.10612 0.75800002
0.1263333 0.10612 0.75800002
0.12744001 0.10584 0.75599998
0.12887999 0.10584 0.75599998
-0.040279999 0.11324 0.79799998
-0.038759999 0.11324 0.79799998
-0.037426669 0.1138076 0.80199999
-0.036078099 0.1143752 0.80600011
-0.034542859 0.1143752 0.80600011
-0.033089519 0.114659 0.80800003
-0.031706661 0.1152267 0.81199998
-0.03023429 0.1155105 0.81400001
-0.028719051 0.1156524 0.81500012
-0.027233331 0.1159362 0.81699997
-0.025739999 0.11622 0.81900012
-0.02423905 0.1165038 0.82099998
-0.022785719 0.1170714 0.82499999
-0.021265719 0.1173552 0.82700002
-0.0197381 0.1176391 0.82900012
-0.01820286 0.1179229 0.83099997
-0.016659999 0.1182067 0.83300012
-0.01510952 0.1184905 0.83499998
-0.01355143 0.1187743 0.83700001
-0.01195714 0.1187743 0.83700001
-0.01036286 0.1187743 0.83700001
-0.0087895244 0.1190581 0.83899999
-0.0071914289 0.1190581 0.83899999
-0.0055933329 0.1190581 0.83899999
-0.004004762 0.1193419 0.84100002
-0.0024142859 0.1199095 0.84500003
-0.00080476189 0.1199095 0.84500003
0.00080761907 0.1203352 0.84799999
0.0024285719 0.1206191 0.85000002
0.0040476192 0.1206191 0.85000002
0.0056799999 0.1209029 0.85200012
0.0073028579 0.1209029 0.85200012
0.0089257155 0.1209029 0.85200012
0.01054857 0.1209029 0.85200012
0.0122 0.1211867 0.85399997
0.01379429 0.1209029 0.85200012
0.01541714 0.1209029 0.85200012
0.017039999 0.1209029 0.85200012
0.01870667 0.1211867 0.85399997
0.020333329 0.1211867 0.85399997
0.02196 0.1211867 0.85399997
0.02358667 0.1211867 0.85399997
0.025213329 0.1211867 0.85399997
0.02690286 0.1214705 0.85600013
0.02853334 0.1214705 0.85600013
0.03016381 0.1214705 0.85600013
0.031794291 0.1214705 0.85600013
0.044733331 0.1211867 0.85399997
0.046251431 0.1209029 0.85200012
0.047986671 0.1211867 0.85399997
0.062773332 0.1214705 0.85600013
0.064253338 0.1211867 0.85399997
0.065880001 0.1211867 0.85399997
0.067506671 0.1211867 0.85399997
0.069133326 0.1211867 0.85399997
0.070759997 0.1211867 0.85399997
0.072217137 0.1209029 0.85200012
0.073666662 0.1206191 0.85000002
0.075285718 0.1206191 0.85000002
0.076723807 0.1203352 0.84799999
0.078339048 0.1203352 0.84799999
0.079954289 0.1203352 0.84799999
0.081280947 0.1199095 0.84500003
0.082890481 0.1199095 0.84500003
0.084299996 0.1196257 0.84300011
0.085905723 0.1196257 0.84300011
0.08730381 0.1193419 0.84100002
0.088905722 0.1193419 0.84100002
0.090292387 0.1190581 0.83899999
0.09167143 0.1187743 0.83700001
0.092820004 0.1182067 0.83300012
0.094180003 0.1179229 0.83099997
0.095301896 0.1173552 0.82700002
0.096642859 0.1170714 0.82499999
0.098214291 0.1170714 0.82499999
0.099785723 0.1170714 0.82499999
0.1011114 0.1167876 0.82300001
0.1024295 0.1165038 0.82099998
0.1039933 0.1165038 0.82099998
0.1050429 0.1159362 0.81699997
0.1063381 0.1156524 0.81500012
0.1077581 0.1155105 0.81400001
0.1093086 0.1155105 0.81400001
0.1105867 0.1152267 0.81199998
0.1118572 0.1149429 0.81000012
0.11284 0.1143752 0.80600011
0.1138076 0.1138076 0.80199999
0.11476 0.11324 0.79799998
0.1161343 0.1130981 0.79700011
0.1176524 0.1130981 0.79700011
0.1188714 0.1128143 0.79500002
0.11978 0.1122467 0.79100001
0.12098 0.1119629 0.78899997
0.126 0.10728 0.75599998
0.1272714 0.1071381 0.75500011
0.1287095 0.1071381 0.75500011
-0.040279999 0.11476 0.79799998
-0.03895428 0.1153352 0.80199999
-0.03761334 0.1159105 0.80600011
-0.036167622 0.1161981 0.80800003
-0.03462857 0.1161981 0.80800003
-0.03317143 0.1164857 0.81000012
-0.031706661 0.1167733 0.81199998
-0.03027143 0.1172048 0.81500012
-0.02878953 0.1174924 0.81699997
-0.0273 0.11778 0.81900012
-0.025739999 0.11778 0.81900012
-0.0242981 0.1183552 0.82300001
-0.022785719 0.1186429 0.82499999
-0.021265719 0.1189305 0.82700002
-0.019785721 0.1195057 0.83099997
-0.018246669 0.1197933 0.83300012
-0.0167 0.120081 0.83499998
-0.01510952 0.120081 0.83499998
-0.01355143 0.1203686 0.83700001
-0.01195714 0.1203686 0.83700001
-0.01036286 0.1203686 0.83700001
-0.0087895244 0.1206562 0.83899999
-0.0071914289 0.1206562 0.83899999
-0.0056066671 0.1209438 0.84100002
-0.004004762 0.1209438 0.84100002
-0.0024142859 0.121519 0.84500003
-0.00080761907 0.1219505 0.84799999
0.00080761907 0.1219505 0.84799999
0.0024285719 0.1222381 0.85000002
0.0040571429 0.1225257 0.85200012
0.0056799999 0.1225257 0.85200012
0.0073028579 0.1225257 0.85200012
0.0089257155 0.1225257 0.85200012
0.01057333 0.1228133 0.85399997
0.0122 0.1228133 0.85399997
0.01379429 0.1225257 0.85200012
0.01541714 0.1225257 0.85200012
0.017039999 0.1225257 0.85200012
0.01870667 0.1228133 0.85399997
0.020333329 0.1228133 0.85399997
0.022011429 0.123101 0.85600013
0.02364191 0.123101 0.85600013
0.067506671 0.1228133 0.85399997
0.069133326 0.1228133 0.85399997
0.070759997 0.1228133 0.85399997
0.072217137 0.1225257 0.85200012
0.073666662 0.1222381 0.85000002
0.075285718 0.1222381 0.85000002
0.076723807 0.1219505 0.84799999
0.078339048 0.1219505 0.84799999
0.079954289 0.1219505 0.84799999
0.081280947 0.121519 0.84500003
0.082890481 0.121519 0.84500003
0.084500007 0.121519 0.84500003
0.085905723 0.1212314 0.84300011
0.087511443 0.1212314 0.84300011
0.088905722 0.1209438 0.84100002
0.090507619 0.1209438 0.84100002
0.091890477 0.1206562 0.83899999
0.093265712 0.1203686 0.83700001
0.094180003 0.1195057 0.83099997
0.095762856 0.1195057 0.83099997
0.096877143 0.1189305 0.82700002
0.098214291 0.1186429 0.82499999
0.099785723 0.1186429 0.82499999
0.1011114 0.1183552 0.82300001
0.1026791 0.1183552 0.82300001
0.1039933 0.1180676 0.82099998
0.1053 0.11778 0.81900012
0.1063381 0.1172048 0.81500012
0.1077581 0.117061 0.81400001
0.1093086 0.117061 0.81400001
0.110859 0.117061 0.81400001
0.1121333 0.1167733 0.81199998
0.11312 0.1161981 0.80800003
0.1138076 0.1153352 0.80199999
0.1150476 0.1150476 0.80000001
0.11628 0.11476 0.79799998
0.1176524 0.1146162 0.79700011
0.1191705 0.1146162 0.79700011
0.1200829 0.114041 0.79299998
0.12098 0.1134657 0.78899997
0.1220171 0.1130343 0.78600001
0.126 0.10872 0.75599998
0.1272714 0.1085762 0.75500011
0.1287095 0.1085762 0.75500011
-0.039051428 0.1171543 0.80400002
-0.03761334 0.1174457 0.80600011
-0.036078099 0.1174457 0.80600011
-0.03462857 0.1177371 0.80800003
-0.033089519 0.1177371 0.80800003
-0.031706661 0.11832 0.81199998
-0.03027143 0.1187572 0.81500012
-0.028860001 0.11934 0.81900012
-0.0273 0.11934 0.81900012
-0.02580286 0.1196314 0.82099998
-0.0242981 0.1199228 0.82300001
-0.022785719 0.1202143 0.82499999
-0.021265719 0.1205057 0.82700002
-0.019785721 0.1210886 0.83099997
-0.018246669 0.12138 0.83300012
-0.0167 0.1216714 0.83499998
-0.01514571 0.1219629 0.83700001
-0.01355143 0.1219629 0.83700001
-0.01195714 0.1219629 0.83700001
-0.01038762 0.1222543 0.83899999
-0.0087895244 0.1222543 0.83899999
-0.0072085718 0.1225457 0.84100002
-0.0056333332 0.1231286 0.84500003
-0.0040238099 0.1231286 0.84500003
-0.0024228571 0.1235657 0.84799999
-0.00080761907 0.1235657 0.84799999
0.00080761907 0.1235657 0.84799999
0.0024342861 0.1241486 0.85200012
0.0040571429 0.1241486 0.85200012
0.078339048 0.1235657 0.84799999
0.079954289 0.1235657 0.84799999
0.081280947 0.1231286 0.84500003
0.082890481 0.1231286 0.84500003
0.084500007 0.1231286 0.84500003
0.085905723 0.1228371 0.84300011
0.087511443 0.1228371 0.84300011
0.088905722 0.1225457 0.84100002
0.090507619 0.1225457 0.84100002
0.091890477 0.1222543 0.83899999
0.093265712 0.1219629 0.83700001
0.094406672 0.12138 0.83300012
0.095762856 0.1210886 0.83099997
0.097111441 0.1207971 0.82900012
0.098452382 0.1205057 0.82700002
0.1000276 0.1205057 0.82700002
0.1013571 0.1202143 0.82499999
0.1026791 0.1199228 0.82300001
0.1039933 0.1196314 0.82099998
0.1055572 0.1196314 0.82099998
0.10686 0.11934 0.81900012
0.1078905 0.1187572 0.81500012
0.1094429 0.1187572 0.81500012
0.110859 0.1186114 0.81400001
0.1121333 0.11832 0.81199998
0.11312 0.1177371 0.80800003
0.1140914 0.1171543 0.80400002
0.1150476 0.1165714 0.80000001
0.11628 0.11628 0.79799998
0.1176524 0.1161343 0.79700011
0.1191705 0.1161343 0.79700011
0.1200829 0.1155514 0.79299998
0.1212867 0.11526 0.79100001
0.1223276 0.1148229 0.78799999
0.1235143 0.1145314 0.78600001
0.1250114 0.1145314 0.78600001
0.12650859 0.1145314 0.78600001
0.126 0.11016 0.75599998
0.12744001 0.11016 0.75599998
0.12887999 0.11016 0.75599998
-0.040582862 0.1186857 0.80400002
-0.039148569 0.118981 0.80600011
-0.03761334 0.118981 0.80600011
-0.036167622 0.1192762 0.80800003
-0.034714289 0.1195714 0.81000012
-0.03317143 0.1195714 0.81000012
-0.031706661 0.1198667 0.81199998
-0.03027143 0.1203095 0.81500012
-0.028860001 0.1209 0.81900012
-0.02736667 0.1211952 0.82099998
-0.02580286 0.1211952 0.82099998
-0.0242981 0.1214905 0.82300001
-0.022785719 0.1217857 0.82499999
-0.021317139 0.1223762 0.82900012
-0.019785721 0.1226714 0.83099997
-0.018246669 0.1229667 0.83300012
-0.0167 0.1232619 0.83499998
-0.01514571 0.1235571 0.83700001
-0.01355143 0.1235571 0.83700001
-0.01195714 0.1235571 0.83700001
-0.01038762 0.1238524 0.83899999
-0.0088104764 0.1241476 0.84100002
-0.0072085718 0.1241476 0.84100002
-0.0056333332 0.1247381 0.84500003
-0.004038095 0.125181 0.84799999
-0.0024228571 0.125181 0.84799999
-0.00080761907 0.125181 0.84799999
0.0008095238 0.1254762 0.85000002
0.079954289 0.125181 0.84799999
0.081569523 0.125181 0.84799999
0.082890481 0.1247381 0.84500003
0.084500007 0.1247381 0.84500003
0.086109526 0.1247381 0.84500003
0.087511443 0.1244429 0.84300011
0.088905722 0.1241476 0.84100002
0.090507619 0.1241476 0.84100002
0.091890477 0.1238524 0.83899999
0.093265712 0.1235571 0.83700001
0.094406672 0.1229667 0.83300012
0.09599334 0.1229667 0.83300012
0.097345717 0.1226714 0.83099997
0.09869048 0.1223762 0.82900012
0.1000276 0.122081 0.82700002
0.1013571 0.1217857 0.82499999
0.1026791 0.1214905 0.82300001
0.1042467 0.1214905 0.82300001
0.1055572 0.1211952 0.82099998
0.10686 0.1209 0.81900012
0.1078905 0.1203095 0.81500012
0.1094429 0.1203095 0.81500012
0.110859 0.1201619 0.81400001
0.1121333 0.1198667 0.81199998
0.1134 0.1195714 0.81000012
0.1143752 0.118981 0.80600011
0.1150476 0.1180952 0.80000001
0.11628 0.1178 0.79799998
0.1178 0.1178 0.79799998
0.1191705 0.1176524 0.79700011
0.1200829 0.1170619 0.79299998
0.1212867 0.1167667 0.79100001
0.1224829 0.1164714 0.78899997
0.1238286 0.1163238 0.78799999
0.1250114 0.1160286 0.78600001
0.12650859 0.1160286 0.78600001
0.1280057 0.1160286 0.78600001
0.126 0.1116 0.75599998
0.12744001 0.1116 0.75599998
0.12887999 0.1116 0.75599998
-0.04048191 0.1199181 0.80199999
-0.039051428 0.1202171 0.80400002
-0.03761334 0.1205162 0.80600011
-0.036167622 0.1208152 0.80800003
-0.034714289 0.1211143 0.81000012
-0.03317143 0.1211143 0.81000012
-0.031784762 0.1217124 0.81400001
-0.03027143 0.1218619 0.81500012
-0.028860001 0.12246 0.81900012
-0.02736667 0.1227591 0.82099998
-0.025865709 0.1230581 0.82300001
-0.02435714 0.1233571 0.82499999
-0.022840951 0.1236562 0.82700002
-0.021317139 0.1239552 0.82900012
-0.019785721 0.1242543 0.83099997
-0.018246669 0.1245533 0.83300012
-0.0167 0.1248524 0.83499998
-0.01514571 0.1251514 0.83700001
-0.01355143 0.1251514 0.83700001
-0.01198571 0.12545051 0.83899999
-0.01038762 0.12545051 0.83899999
-0.0088104764 0.1257495 0.84100002
-0.0072257151 0.12604859 0.84300011
-0.0056333332 0.1263476 0.84500003
0.082890481 0.1263476 0.84500003
0.084500007 0.1263476 0.84500003
0.086109526 0.1263476 0.84500003
0.087511443 0.12604859 0.84300011
0.089117147 0.12604859 0.84300011
0.090507619 0.1257495 0.84100002
0.091890477 0.12545051 0.83899999
0.093265712 0.1251514 0.83700001
0.094633341 0.1248524 0.83499998
0.09599334 0.1245533 0.83300012
0.097345717 0.1242543 0.83099997
0.09869048 0.1239552 0.82900012
0.1002695 0.1239552 0.82900012
0.1013571 0.1233571 0.82499999
0.1029286 0.1233571 0.82499999
0.1042467 0.1230581 0.82300001
0.1055572 0.1227591 0.82099998
0.107121 0.1227591 0.82099998
0.1081552 0.122161 0.81699997
0.1094429 0.1218619 0.81500012
0.110859 0.1217124 0.81400001
0.1124095 0.1217124 0.81400001
0.11368 0.1214133 0.81199998
0.114659 0.1208152 0.80800003
0.1156229 0.1202171 0.80400002
0.1165714 0.119619 0.80000001
0.1178 0.11932 0.79799998
0.1191705 0.1191705 0.79700011
0.1200829 0.1185724 0.79299998
0.1212867 0.1182733 0.79100001
0.1223276 0.1178248 0.78799999
0.1235143 0.1175257 0.78600001
0.1250114 0.1175257 0.78600001
0.1261867 0.1172267 0.78399998
0.12768 0.1172267 0.78399998
-0.04048191 0.1214457 0.80199999
-0.039051428 0.1217486 0.80400002
-0.03761334 0.1220514 0.80600011
-0.036167622 0.1223543 0.80800003
-0.034714289 0.1226572 0.81000012
-0.033253331 0.12296 0.81199998
-0.03182381 0.1234143 0.81500012
-0.030345719 0.1237171 0.81699997
-0.02893048 0.1243228 0.82099998
-0.02736667 0.1243228 0.82099998
-0.025865709 0.1246257 0.82300001
-0.02435714 0.1249286 0.82499999
-0.022840951 0.1252314 0.82700002
-0.021368571 0.1258371 0.83099997
-0.01983333 0.12614 0.83300012
-0.018290481 0.1264428 0.83499998
-0.0167 0.1264428 0.83499998
-0.01514571 0.1267457 0.83700001
-0.01355143 0.1267457 0.83700001
-0.01198571 0.1270486 0.83899999
-0.01041238 0.1273514 0.84100002
-0.0088104764 0.1273514 0.84100002
-0.0072257151 0.1276543 0.84300011
-0.00562 0.1276543 0.84300011
0.086109526 0.1279572 0.84500003
0.087719053 0.1279572 0.84500003
0.089117147 0.1276543 0.84300011
0.090507619 0.1273514 0.84100002
0.091890477 0.1270486 0.83899999
0.093488567 0.1270486 0.83899999
0.094633341 0.1264428 0.83499998
0.09599334 0.12614 0.83300012
0.097345717 0.1258371 0.83099997
0.098928571 0.1258371 0.83099997
0.1002695 0.1255343 0.82900012
0.1016029 0.1252314 0.82700002
0.1031781 0.1252314 0.82700002
0.1045 0.1249286 0.82499999
0.1058143 0.1246257 0.82300001
0.1073819 0.1246257 0.82300001
0.1086848 0.1243228 0.82099998
0.1097114 0.1237171 0.81699997
0.110859 0.1232629 0.81400001
0.1124095 0.1232629 0.81400001
0.11368 0.12296 0.81199998
0.114659 0.1223543 0.80800003
0.1156229 0.1217486 0.80400002
0.1165714 0.1211429 0.80000001
0.1178 0.12084 0.79799998
0.1188714 0.1203857 0.79500002
0.1200829 0.1200829 0.79299998
0.1212867 0.11978 0.79100001
0.1227933 0.11978 0.79100001
0.1232 0.11872 0.78399998
0.1246933 0.11872 0.78399998
0.1258648 0.1184172 0.78200012
0.12735429 0.1184172 0.78200012
-0.04048191 0.1229733 0.80199999
-0.039051428 0.12328 0.80400002
-0.03761334 0.1235867 0.80600011
-0.03625714 0.1242 0.81000012
-0.0348 0.1245067 0.81199998
-0.033253331 0.1245067 0.81199998
-0.031901911 0.1252733 0.81699997
-0.030345719 0.1252733 0.81699997
-0.02893048 0.12588669 0.82099998
-0.02743333 0.1261933 0.82300001
-0.025865709 0.1261933 0.82300001
-0.02441619 0.12680671 0.82700002
-0.022896189 0.1271133 0.82900012
-0.021368571 0.12741999 0.83099997
-0.01983333 0.1277267 0.83300012
-0.018290481 0.1280333 0.83499998
-0.01674 0.12834001 0.83700001
-0.01518191 0.1286467 0.83899999
-0.01358381 0.1286467 0.83899999
-0.01201429 0.12895329 0.84100002
-0.01043714 0.12926 0.84300011
0.089117147 0.12926 0.84300011
0.090507619 0.12895329 0.84100002
0.091890477 0.1286467 0.83899999
0.093488567 0.1286467 0.83899999
0.094633341 0.1280333 0.83499998
0.096223809 0.1280333 0.83499998
0.097580008 0.1277267 0.83300012
0.098928571 0.12741999 0.83099997
0.1002695 0.1271133 0.82900012
0.1018486 0.1271133 0.82900012
0.1031781 0.12680671 0.82700002
0.1045 0.1265 0.82499999
0.1058143 0.1261933 0.82300001
0.1073819 0.1261933 0.82300001
0.1086848 0.12588669 0.82099998
0.1097114 0.1252733 0.81699997
0.1109952 0.1249667 0.81500012
0.1124095 0.1248133 0.81400001
0.11368 0.1245067 0.81199998
0.1149429 0.1242 0.81000012
0.1159105 0.1235867 0.80600011
0.1168629 0.1229733 0.80199999
0.1178 0.12236 0.79799998
0.1188714 0.1219 0.79500002
0.1200829 0.1215933 0.79299998
0.1212867 0.1212867 0.79100001
0.1227933 0.1212867 0.79100001
0.1239857 0.12098 0.78899997
0.1246933 0.1202133 0.78399998
0.1261867 0.1202133 0.78399998
0.12735429 0.1199067 0.78200012
-0.04048191 0.124501 0.80199999
-0.039148569 0.12512191 0.80600011
-0.03761334 0.12512191 0.80600011
-0.036167622 0.1254324 0.80800003
-0.034714289 0.1257429 0.81000012
-0.033376191 0.1265191 0.81500012
-0.03198 0.12714 0.81900012
-0.030494289 0.1274505 0.82099998
-0.029000949 0.1277609 0.82300001
-0.0275 0.1280714 0.82499999
-0.026054289 0.1286924 0.82900012
-0.024534291 0.1290029 0.83099997
-0.02295143 0.1290029 0.83099997
-0.02142 0.12931331 0.83300012
-0.01988095 0.1296238 0.83499998
-0.018334281 0.1299343 0.83700001
-0.01674 0.1299343 0.83700001
-0.01518191 0.13024481 0.83899999
-0.01358381 0.13024481 0.83899999
-0.01201429 0.1305552 0.84100002
-0.01041238 0.1305552 0.84100002
0.090507619 0.1305552 0.84100002
0.091890477 0.13024481 0.83899999
0.093488567 0.13024481 0.83899999
0.094860002 0.1299343 0.83700001
0.096223809 0.1296238 0.83499998
0.097580008 0.12931331 0.83300012
0.098928571 0.1290029 0.83099997
0.1002695 0.1286924 0.82900012
0.1018486 0.1286924 0.82900012
0.1031781 0.12838189 0.82700002
0.1047533 0.12838189 0.82700002
0.1060714 0.1280714 0.82499999
0.1076429 0.1280714 0.82499999
0.1089495 0.1277609 0.82300001
0.10998 0.12714 0.81900012
0.1109952 0.1265191 0.81500012
0.1124095 0.1263638 0.81400001
0.11396 0.1263638 0.81400001
0.1152267 0.1260533 0.81199998
0.1161981 0.1254324 0.80800003
0.1165714 0.1241905 0.80000001
0.1176524 0.1237248 0.79700011
0.1185724 0.1231038 0.79299998
0.1200829 0.1231038 0.79299998
0.1212867 0.1227933 0.79100001
0.1224829 0.1224829 0.78899997
0.1239857 0.1224829 0.78899997
0.1246933 0.1217067 0.78399998
0.1261867 0.1217067 0.78399998
-0.039148569 0.1266571 0.80600011
-0.037706669 0.12697139 0.80800003
-0.036167622 0.12697139 0.80800003
-0.034714289 0.1272857 0.81000012
-0.03317143 0.1272857 0.81000012
-0.03198 0.1287 0.81900012
-0.03056857 0.12932859 0.82300001
-0.02907143 0.1296429 0.82499999
-0.02763333 0.1302714 0.82900012
-0.02611714 0.1305857 0.83099997
-0.024593331 0.1309 0.83300012
-0.02300667 0.1309 0.83300012
-0.02147143 0.13121431 0.83499998
-0.01988095 0.13121431 0.83499998
-0.018334281 0.1315286 0.83700001
-0.01674 0.1315286 0.83700001
-0.01518191 0.1318429 0.83899999
-0.01358381 0.1318429 0.83899999
0.093488567 0.1318429 0.83899999
0.094860002 0.1315286 0.83700001
0.096454293 0.1315286 0.83700001
0.097814277 0.13121431 0.83499998
0.098928571 0.1305857 0.83099997
0.1005114 0.1305857 0.83099997
0.1018486 0.1302714 0.82900012
0.1034276 0.1302714 0.82900012
0.1047533 0.12995709 0.82700002
0.1063286 0.12995709 0.82700002
0.1076429 0.1296429 0.82499999
0.1089495 0.12932859 0.82300001
0.10998 0.1287 0.81900012
0.1112676 0.12838569 0.81699997
0.1125476 0.1280714 0.81500012
0.1141 0.1280714 0.81500012
0.1155105 0.12791429 0.81400001
0.1161981 0.12697139 0.80800003
0.1165714 0.1257143 0.80000001
0.1173571 0.1249286 0.79500002
0.1185724 0.1246143 0.79299998
0.1200829 0.1246143 0.79299998
0.1212867 0.1243 0.79100001
0.1224829 0.1239857 0.78899997
0.1228857 0.1228857 0.78200012
0.1243752 0.1228857 0.78200012
0.1261867 0.1232 0.78399998
-0.03761334 0.12819239 0.80600011
-0.036078099 0.12819239 0.80600011
-0.03462857 0.1285105 0.80800003
-0.03317143 0.1288286 0.81000012
-0.031628579 0.1288286 0.81000012
-0.03064286 0.13121431 0.82499999
-0.029141899 0.1315324 0.82700002
-0.027766669 0.1324867 0.83300012
-0.026179999 0.1324867 0.83300012
-0.024593331 0.1324867 0.83300012
-0.023061911 0.1328048 0.83499998
-0.02147143 0.1328048 0.83499998
-0.019928571 0.13312291 0.83700001
-0.018334281 0.13312291 0.83700001
0.094860002 0.13312291 0.83700001
0.096454293 0.13312291 0.83700001
0.097814277 0.1328048 0.83499998
0.098928571 0.13216861 0.83099997
0.1005114 0.13216861 0.83099997
0.1020943 0.13216861 0.83099997
0.1034276 0.1318505 0.82900012
0.1050067 0.1318505 0.82900012
0.1063286 0.1315324 0.82700002
0.1079038 0.1315324 0.82700002
0.1089495 0.1308962 0.82300001
0.10998 0.13026001 0.81900012
0.1112676 0.1299419 0.81699997
0.1125476 0.1296238 0.81500012
0.1141 0.1296238 0.81500012
0.1155105 0.12946481 0.81400001
0.1164857 0.1288286 0.81000012
0.1165714 0.12723809 0.80000001
0.1173571 0.1264428 0.79500002
0.1185724 0.1261248 0.79299998
0.1200829 0.1261248 0.79299998
0.1212867 0.1258067 0.79100001
0.1227933 0.1258067 0.79100001
0.1235143 0.1250114 0.78600001
0.1246933 0.1246933 0.78399998
0.1261867 0.1246933 0.78399998
-0.03317143 0.13037141 0.81000012
-0.032292381 0.1331076 0.82700002
-0.03071714 0.1331076 0.82700002
-0.02921238 0.1334295 0.82900012
-0.0277 0.13375141 0.83099997
-0.026179999 0.1340733 0.83300012
-0.02465238 0.1343952 0.83499998
0.096454293 0.1347172 0.83700001
0.097814277 0.1343952 0.83499998
0.099166676 0.1340733 0.83300012
0.1005114 0.13375141 0.83099997
0.1020943 0.13375141 0.83099997
0.1034276 0.1334295 0.82900012
0.1050067 0.1334295 0.82900012
0.1065857 0.1334295 0.82900012
0.1079038 0.1331076 0.82700002
0.1092143 0.13278569 0.82499999
0.1102486 0.1321419 0.82099998
0.11154 0.13181999 0.81900012
0.1125476 0.1311762 0.81500012
0.1141 0.1311762 0.81500012
0.1156524 0.1311762 0.81500012
0.1167733 0.1306933 0.81199998
0.1165714 0.1287619 0.80000001
0.1176524 0.1282791 0.79700011
0.1188714 0.12795711 0.79500002
0.1200829 0.1276353 0.79299998
0.1215933 0.1276353 0.79299998
0.1227933 0.1273133 0.79100001
0.1235143 0.12650859 0.78600001
0.1246933 0.1261867 0.78399998
0.1261867 0.1261867 0.78399998
-0.032370482 0.1350086 0.82900012
-0.03079143 0.1350086 0.82900012
-0.02921238 0.1350086 0.82900012
-0.02763333 0.1350086 0.82900012
-0.02611714 0.1353343 0.83099997
-0.024534291 0.1353343 0.83099997
0.099166676 0.13565999 0.83300012
0.1005114 0.1353343 0.83099997
0.1050067 0.1350086 0.82900012
0.1065857 0.1350086 0.82900012
0.1079038 0.13468289 0.82700002
0.1092143 0.1343572 0.82499999
0.1102486 0.13370571 0.82099998
0.11154 0.13338 0.81900012
0.1131 0.13338 0.81900012
0.1141 0.13272861 0.81500012
0.1156524 0.13272861 0.81500012
0.1167733 0.13224 0.81199998
0.1165714 0.1302857 0.80000001
0.1178 0.12996 0.79799998
0.11932 0.12996 0.79799998
0.12084 0.12996 0.79799998
0.1215933 0.1291457 0.79299998
0.1225714 0.1270286 0.77999997
0.1240572 0.1270286 0.77999997
-0.032214291 0.1359286 0.82499999
-0.03071714 0.1362581 0.82700002
-0.029141899 0.1362581 0.82700002
0.1065857 0.1365876 0.82900012
0.1079038 0.1362581 0.82700002
0.1092143 0.1359286 0.82499999
0.1105171 0.135599 0.82300001
0.1118124 0.13526949 0.82099998
0.1133762 0.13526949 0.82099998
0.11466 0.13494 0.81900012
0.1156524 0.13428099 0.81500012
0.117061 0.1341162 0.81400001
0.1177371 0.1331276 0.80800003
0.1180952 0.1318095 0.80000001
0.11932 0.13147999 0.79799998
0.12084 0.13147999 0.79799998
0.1225714 0.1285143 0.77999997
0.1240572 0.1285143 0.77999997
-0.032214291 0.1375 0.82499999
0.1079038 0.1378333 0.82700002
0.1092143 0.1375 0.82499999
0.1105171 0.13716669 0.82300001
0.1118124 0.1368333 0.82099998
0.1133762 0.1368333 0.82099998
0.11466 0.1365 0.81900012
0.1159362 0.13616671 0.81699997
0.117061 0.1356667 0.81400001
0.1180286 0.13500001 0.81000012
0.1183905 0.13366669 0.80199999
0.1199181 0.13366669 0.80199999
0.12084 0.133 0.79799998
0.1081648 0.1397457 0.82900012
0.1092143 0.1390714 0.82499999
0.1107857 0.1390714 0.82499999
0.1120848 0.1387343 0.82300001
0.1133762 0.1383971 0.82099998
0.11494 0.1383971 0.82099998
0.11622 0.13806 0.81900012
0.1172048 0.1373857 0.81500012
0.11832 0.13688 0.81199998
0.1186857 0.1355314 0.80400002
0.1205162 0.13586859 0.80600011
0.1220514 0.13586859 0.80600011
0.109479 0.14098381 0.82700002
0.1110543 0.14098381 0.82700002
0.1120848 0.1403019 0.82300001
0.1133762 0.1399609 0.82099998
0.11494 0.1399609 0.82099998
0.1156524 0.1389381 0.81500012
0.117061 0.1387676 0.81400001
0.1180286 0.13808569 0.81000012
0.1192762 0.1377448 0.80800003
0.1208152 0.1377448 0.80800003
0.1220514 0.1374038 0.80600011
0.1110543 0.14255901 0.82700002
0.1120848 0.1418695 0.82300001
0.1136524 0.1418695 0.82300001
0.11494 0.14152481 0.82099998
0.1165038 0.14152481 0.82099998
0.117061 0.1403181 0.81400001
0.1180286 0.1396286 0.81000012
0.1195714 0.1396286 0.81000012
0.1208152 0.13928381 0.80800003
0.1120848 0.1434371 0.82300001
0.1136524 0.1434371 0.82300001
0.11522 0.1434371 0.82300001
0.11622 0.14274 0.81900012
0.1172048 0.14204291 0.81500012
0.1187572 0.14204291 0.81500012
0.1195714 0.1411714 0.81000012
0.1120848 0.14500479 0.82300001
0.1136524 0.14500479 0.82300001
0.11494 0.1446524 0.82099998
0.1165038 0.1446524 0.82099998
0.1180676 0.1446524 0.82099998
0.1187572 0.1435952 0.81500012
0.11494 0.1462162 0.82099998
0.1165038 0.1462162 0.82099998
0.1180676 0.1462162 0.82099998
0.11494 0.14778 0.82099998
0.1165038 0.14778 0.82099998
0.1180676 0.14778 0.82099998
-0.01368 0.1270286 0.68400002
-0.01366 0.1281438 0.68300003
-0.01235905 0.1281438 0.68300003
-0.01368 0.12963431 0.68400002
-0.01230476 0.12887619 0.68000001
-0.01100952 0.12887619 0.68000001
-0.0097142858 0.12887619 0.68000001
0.1014143 0.1302029 0.68699998
-0.01368 0.1309371 0.68400002
-0.01235905 0.13074569 0.68300003
-0.01104191 0.1305543 0.68199998
-0.0097142858 0.1301714 0.68000001
-0.008406667 0.12998 0.67900002
-0.0071133338 0.12998 0.67900002
0.095480002 0.1305543 0.68199998
0.1001057 0.13151141 0.68699998
-0.01235905 0.1320467 0.68300003
-0.01104191 0.1318533 0.68199998
-0.0097142858 0.1314667 0.68000001
-0.008419048 0.1314667 0.68000001
-0.0071133338 0.1312733 0.67900002
-0.0058114291 0.13108 0.67799997
-0.0045066671 0.1306933 0.67600012
-0.0032142859 0.1305 0.67500001
-0.001928571 0.1305 0.67500001
-0.00064285722 0.1305 0.67500001
0.08471334 0.1312733 0.67900002
0.094180956 0.1318533 0.68199998
0.095480002 0.1318533 0.68199998
0.09692096 0.1320467 0.68300003
0.098653339 0.1326267 0.68599999
-0.008406667 0.13256671 0.67900002
-0.0071133338 0.13256671 0.67900002
-0.0058114291 0.1323714 0.67799997
-0.00452 0.1323714 0.67799997
-0.003219048 0.131981 0.67600012
-0.001931429 0.131981 0.67600012
-0.00064380962 0.131981 0.67600012
0.091314279 0.1327619 0.68000001
0.092881911 0.1331524 0.68199998
0.094180956 0.1331524 0.68199998
0.095619999 0.1333476 0.68300003
0.097062863 0.1335429 0.68400002
-0.00452 0.13366289 0.67799997
-0.003219048 0.13326859 0.67600012
-0.001937143 0.13366289 0.67799997
-0.00064571429 0.13366289 0.67799997
0.090019047 0.1340571 0.68000001
0.091314279 0.1340571 0.68000001
0.092881911 0.1344514 0.68199998
0.094180956 0.1344514 0.68199998
0.095480002 0.1344514 0.68199998
-0.003228571 0.1349543 0.67799997
-0.001937143 0.1349543 0.67799997
-0.00064571429 0.1349543 0.67799997
0.073600002 0.13376001 0.67200011
0.074879996 0.13376001 0.67200011
0.076159999 0.13376001 0.67200011
0.077670477 0.1341581 0.67400002
0.087300003 0.13515329 0.67900002
0.088723809 0.1353524 0.68000001
0.090019047 0.1353524 0.68000001
0.091582857 0.1357505 0.68199998
0.092881911 0.1357505 0.68199998
0.094180956 0.1357505 0.68199998
0.071039997 0.13504 0.67200011
0.072320007 0.13504 0.67200011
0.073600002 0.13504 0.67200011
0.074879996 0.13504 0.67200011
0.076159999 0.13504 0.67200011
0.077440001 0.13504 0.67200011
0.078954287 0.1354419 0.67400002
0.08742857 0.1366476 0.68000001
0.088723809 0.1366476 0.68000001
0.090283811 0.1370495 0.68199998
0.091582857 0.1370495 0.68199998
0.092881911 0.1370495 0.68199998
0.1115714 0.1426762 0.70999998
0.1129238 0.1426762 0.70999998
0.01088 0.13631999 0.67200011
0.0121419 0.1361171 0.671
0.01342 0.1361171 0.671
0.0146981 0.1361171 0.671
0.01595238 0.1359143 0.67000002
0.01722857 0.1359143 0.67000002
0.06052858 0.1357114 0.66900003
0.06180286 0.1357114 0.66900003
0.063077137 0.1357114 0.66900003
0.064351417 0.1357114 0.66900003
0.065723807 0.1359143 0.67000002
0.066999987 0.1359143 0.67000002
0.068276189 0.1359143 0.67000002
0.069656193 0.1361171 0.671
0.071039997 0.13631999 0.67200011
0.072320007 0.13631999 0.67200011
0.073600002 0.13631999 0.67200011
0.074879996 0.13631999 0.67200011
0.076386668 0.13672569 0.67400002
0.077670477 0.13672569 0.67400002
0.078954287 0.13672569 0.67400002
0.080357142 0.1369286 0.67500001
0.081642851 0.1369286 0.67500001
0.083051443 0.13713139 0.67600012
0.08471334 0.13774 0.67900002
0.086006656 0.13774 0.67900002
0.08742857 0.1379429 0.68000001
0.088723809 0.1379429 0.68000001
0.090283811 0.13834859 0.68199998
0.091582857 0.13834859 0.68199998
0.1129238 0.1440286 0.70999998
0.01088 0.1376 0.67200011
0.01216 0.1376 0.67200011
0.01344 0.1376 0.67200011
0.0146981 0.1373952 0.671
0.015976191 0.1373952 0.671
0.017254289 0.1373952 0.671
0.02488572 0.13719051 0.67000002
0.02867143 0.1369857 0.66900003
0.029945711 0.1369857 0.66900003
0.048766669 0.13616671 0.66500002
0.050033331 0.13616671 0.66500002
0.06052858 0.1369857 0.66900003
0.06180286 0.1369857 0.66900003
0.063077137 0.1369857 0.66900003
0.064351417 0.1369857 0.66900003
0.065723807 0.13719051 0.67000002
0.066999987 0.13719051 0.67000002
0.068276189 0.13719051 0.67000002
0.069656193 0.1373952 0.671
0.071039997 0.1376 0.67200011
0.072535239 0.1380095 0.67400002
0.073600002 0.1376 0.67200011
0.074879996 0.1376 0.67200011
0.076159999 0.1376 0.67200011
0.077670477 0.1380095 0.67400002
0.078954287 0.1380095 0.67400002
0.080357142 0.13821431 0.67500001
0.081642851 0.13821431 0.67500001
0.083297148 0.13882861 0.67799997
0.088723809 0.1392381 0.68000001
0.090283811 0.1396476 0.68199998
0.091582857 0.1396476 0.68199998
0.0930181 0.1398524 0.68300003
0.094319053 0.1398524 0.68300003
0.1115714 0.145381 0.70999998
0.0096285716 0.1392933 0.67400002
0.01091238 0.1392933 0.67400002
0.01216 0.13888 0.67200011
0.01344 0.13888 0.67200011
0.01472 0.13888 0.67200011
0.015976191 0.13867331 0.671
0.017254289 0.13867331 0.671
0.02233333 0.1384667 0.67000002
0.023609521 0.1384667 0.67000002
0.02488572 0.1384667 0.67000002
0.026122861 0.13826001 0.66900003
0.02731524 0.13784669 0.66700011
0.02867143 0.13826001 0.66900003
0.02985619 0.13784669 0.66700011
0.031126671 0.13784669 0.66700011
0.03239714 0.13784669 0.66700011
0.03366762 0.13784669 0.66700011
0.034938101 0.13784669 0.66700011
0.036154289 0.13764 0.66600001
0.037422851 0.13764 0.66600001
0.038633339 0.13743331 0.66500002
0.039900001 0.13743331 0.66500002
0.04122857 0.13764 0.66600001
0.042497139 0.13764 0.66600001
0.04356857 0.13702001 0.66299999
0.044831429 0.13702001 0.66299999
0.04623333 0.13743331 0.66500002
0.047499999 0.13743331 0.66500002
0.048766669 0.13743331 0.66500002
0.050033331 0.13743331 0.66500002
0.0513 0.13743331 0.66500002
0.052645709 0.13764 0.66600001
0.05399524 0.13784669 0.66700011
0.055265721 0.13784669 0.66700011
0.056705721 0.13826001 0.66900003
0.057980001 0.13826001 0.66900003
0.059254289 0.13826001 0.66900003
0.06052858 0.13826001 0.66900003
0.06180286 0.13826001 0.66900003
0.063077137 0.13826001 0.66900003
0.064447619 0.1384667 0.67000002
0.065723807 0.1384667 0.67000002
0.067100003 0.13867331 0.671
0.068378091 0.13867331 0.671
0.06976001 0.13888 0.67200011
0.071039997 0.13888 0.67200011
0.072535239 0.1392933 0.67400002
0.073819049 0.1392933 0.67400002
0.075102858 0.1392933 0.67400002
0.076386668 0.1392933 0.67400002
0.077670477 0.1392933 0.67400002
0.078954287 0.1392933 0.67400002
0.080357142 0.13950001 0.67500001
0.081642851 0.13950001 0.67500001
0.088723809 0.1405333 0.68000001
0.090283811 0.1409467 0.68199998
0.091717146 0.14115331 0.68300003
0.0930181 0.14115331 0.68300003
0.094457142 0.14136 0.68400002
0.097062863 0.14136 0.68400002
0.1157914 0.14693999 0.71100003
0.1186286 0.1488 0.72000003
0.1203333 0.1492133 0.72200012
0.1217086 0.1492133 0.72200012
0.00064380962 0.1409943 0.67600012
0.001928571 0.14078569 0.67500001
0.0032142859 0.14078569 0.67500001
0.0044999998 0.14078569 0.67500001
0.0057857139 0.14078569 0.67500001
0.01091238 0.14057709 0.67400002
0.01219619 0.14057709 0.67400002
0.01348 0.14057709 0.67400002
0.01472 0.14015999 0.67200011
0.016000001 0.14015999 0.67200011
0.017254289 0.13995139 0.671
0.01853238 0.13995139 0.671
0.023609521 0.1397429 0.67000002
0.02488572 0.1397429 0.67000002
0.026122861 0.13953429 0.66900003
0.027397141 0.13953429 0.66900003
0.02867143 0.13953429 0.66900003
0.02985619 0.1391172 0.66700011
0.031126671 0.1391172 0.66700011
0.032494292 0.13953429 0.66900003
0.033617139 0.13890859 0.66600001
0.034938101 0.1391172 0.66700011
0.036208581 0.1391172 0.66700011
0.037591431 0.13953429 0.66900003
0.038865719 0.13953429 0.66900003
0.04002 0.1391172 0.66700011
0.041290481 0.1391172 0.66700011
0.04256095 0.1391172 0.66700011
0.04383143 0.1391172 0.66700011
0.045034289 0.13890859 0.66600001
0.046302859 0.13890859 0.66600001
0.047571432 0.13890859 0.66600001
0.048840001 0.13890859 0.66600001
0.050108571 0.13890859 0.66600001
0.05137714 0.13890859 0.66600001
0.05272476 0.1391172 0.66700011
0.054157149 0.13953429 0.66900003
0.055431429 0.13953429 0.66900003
0.056705721 0.13953429 0.66900003
0.05806667 0.1397429 0.67000002
0.059342861 0.1397429 0.67000002
0.060619049 0.1397429 0.67000002
0.06189524 0.1397429 0.67000002
0.063171431 0.1397429 0.67000002
0.06464 0.14015999 0.67200011
0.065920003 0.14015999 0.67200011
0.067200013 0.14015999 0.67200011
0.068480007 0.14015999 0.67200011
0.06996762 0.14057709 0.67400002
0.07125143 0.14057709 0.67400002
0.072535239 0.14057709 0.67400002
0.073819049 0.14057709 0.67400002
0.075102858 0.14057709 0.67400002
0.076386668 0.14057709 0.67400002
0.077785723 0.14078569 0.67500001
0.079071432 0.14078569 0.67500001
0.080476187 0.1409943 0.67600012
0.081763811 0.1409943 0.67600012
0.083297148 0.14141139 0.67799997
0.084588572 0.14141139 0.67799997
0.086006656 0.14162 0.67900002
0.08742857 0.1418286 0.68000001
0.088984773 0.14224569 0.68199998
0.090548567 0.1426629 0.68400002
0.091851428 0.1426629 0.68400002
0.093562856 0.1432886 0.68699998
0.094871432 0.1432886 0.68699998
0.09604001 0.14308 0.68599999
0.097488567 0.1432886 0.68699998
0.09879715 0.1432886 0.68699998
0.1025829 0.1468343 0.70400012
0.1039238 0.1468343 0.70400012
0.1057133 0.14746 0.70700002
0.1126714 0.1495457 0.71700001
0.1140371 0.1495457 0.71700001
0.1154029 0.1495457 0.71700001
0.1172571 0.1501714 0.72000003
0.1186286 0.1501714 0.72000003
0.12 0.1501714 0.72000003
0.1217086 0.1505886 0.72200012
0.00064571429 0.14270291 0.67799997
0.001937143 0.14270291 0.67799997
0.003228571 0.14270291 0.67799997
0.0044999998 0.1420714 0.67500001
0.0057857139 0.1420714 0.67500001
0.007071428 0.1420714 0.67500001
0.008357143 0.1420714 0.67500001
0.0096285716 0.14186101 0.67400002
0.01091238 0.14186101 0.67400002
0.01219619 0.14186101 0.67400002
0.01348 0.14186101 0.67400002
0.01472 0.14144 0.67200011
0.016000001 0.14144 0.67200011
0.017254289 0.1412295 0.671
0.02488572 0.141019 0.67000002
0.026161909 0.141019 0.67000002
0.0274381 0.141019 0.67000002
0.02871429 0.141019 0.67000002
0.029990479 0.141019 0.67000002
0.031266671 0.141019 0.67000002
0.032542858 0.141019 0.67000002
0.03381905 0.141019 0.67000002
0.035095241 0.141019 0.67000002
0.036371429 0.141019 0.67000002
0.03764762 0.141019 0.67000002
0.038865719 0.1408086 0.66900003
0.040139999 0.1408086 0.66900003
0.041414291 0.1408086 0.66900003
0.042688571 0.1408086 0.66900003
0.043962859 0.1408086 0.66900003
0.045237139 0.1408086 0.66900003
0.046372391 0.14038759 0.66700011
0.047642861 0.14038759 0.66700011
0.048913341 0.14038759 0.66700011
0.05018381 0.14038759 0.66700011
0.051454291 0.14038759 0.66700011
0.05272476 0.14038759 0.66700011
0.054157149 0.1408086 0.66900003
0.055514291 0.141019 0.67000002
0.056705721 0.1408086 0.66900003
0.05806667 0.141019 0.67000002
0.059342861 0.141019 0.67000002
0.060619049 0.141019 0.67000002
0.06189524 0.141019 0.67000002
0.063265711 0.1412295 0.671
0.06464 0.14144 0.67200011
0.065920003 0.14144 0.67200011
0.067200013 0.14144 0.67200011
0.068480007 0.14144 0.67200011
0.06996762 0.14186101 0.67400002
0.07125143 0.14186101 0.67400002
0.072535239 0.14186101 0.67400002
0.073819049 0.14186101 0.67400002
0.075214282 0.1420714 0.67500001
0.076500013 0.1420714 0.67500001
0.077785723 0.1420714 0.67500001
0.079071432 0.1420714 0.67500001
0.080476187 0.1422819 0.67600012
0.081763811 0.1422819 0.67600012
0.083297148 0.14270291 0.67799997
0.08471334 0.1429133 0.67900002
0.086006656 0.1429133 0.67900002
0.08742857 0.14312381 0.68000001
0.088984773 0.14354479 0.68199998
0.090813339 0.14438669 0.68599999
0.092120007 0.14438669 0.68599999
0.093835227 0.1450181 0.68900001
0.095147617 0.1450181 0.68900001
0.097488567 0.1445972 0.68699998
0.1010981 0.14796481 0.70300001
0.1024371 0.14796481 0.70300001
0.1039238 0.1481753 0.70400012
0.1057133 0.14880671 0.70700002
0.1129238 0.1494381 0.70999998
0.1142762 0.1494381 0.70999998
0.1172571 0.1515429 0.72000003
0.00064571429 0.1439943 0.67799997
0.001937143 0.1439943 0.67799997
0.003228571 0.1439943 0.67799997
0.00452 0.1439943 0.67799997
0.0057857139 0.1433571 0.67500001
0.007071428 0.1433571 0.67500001
0.008357143 0.1433571 0.67500001
0.0096285716 0.1431448 0.67400002
0.01091238 0.1431448 0.67400002
0.01219619 0.1431448 0.67400002
0.01348 0.1431448 0.67400002
0.01472 0.14272 0.67200011
0.016000001 0.14272 0.67200011
0.017254289 0.1425076 0.671
0.01853238 0.1425076 0.671
0.022366671 0.1425076 0.671
0.023609521 0.1422952 0.67000002
0.02488572 0.1422952 0.67000002
0.026161909 0.1422952 0.67000002
0.0274381 0.1422952 0.67000002
0.02871429 0.1422952 0.67000002
0.030035241 0.1425076 0.671
0.03131333 0.1425076 0.671
0.032591429 0.1425076 0.671
0.03381905 0.1422952 0.67000002
0.035095241 0.1422952 0.67000002
0.036371429 0.1422952 0.67000002
0.03764762 0.1422952 0.67000002
0.038865719 0.1420829 0.66900003
0.040139999 0.1420829 0.66900003
0.041414291 0.1420829 0.66900003
0.042688571 0.1420829 0.66900003
0.043962859 0.1420829 0.66900003
0.045237139 0.1420829 0.66900003
0.04651143 0.1420829 0.66900003
0.047785722 0.1420829 0.66900003
0.049059998 0.1420829 0.66900003
0.05033429 0.1420829 0.66900003
0.05160857 0.1420829 0.66900003
0.052882861 0.1420829 0.66900003
0.054157149 0.1420829 0.66900003
0.055514291 0.1422952 0.67000002
0.056705721 0.1420829 0.66900003
0.05806667 0.1422952 0.67000002
0.05943143 0.1425076 0.671
0.060619049 0.1422952 0.67000002
0.06198762 0.1425076 0.671
0.063265711 0.1425076 0.671
0.06464 0.14272 0.67200011
0.066116191 0.1431448 0.67400002
0.067200013 0.14272 0.67200011
0.068480007 0.14272 0.67200011
0.06996762 0.1431448 0.67400002
0.07125143 0.1431448 0.67400002
0.072535239 0.1431448 0.67400002
0.073819049 0.1431448 0.67400002
0.075102858 0.1431448 0.67400002
0.076500013 0.1433571 0.67500001
0.077785723 0.1433571 0.67500001
0.079071432 0.1433571 0.67500001
0.080357142 0.1433571 0.67500001
0.081763811 0.1435695 0.67600012
0.083297148 0.1439943 0.67799997
0.084588572 0.1439943 0.67799997
0.085879996 0.1439943 0.67799997
0.087171443 0.1439943 0.67799997
0.090159051 0.1467552 0.69099998
0.091475241 0.1467552 0.69099998
0.092791438 0.1467552 0.69099998
0.094379999 0.14718001 0.69300002
0.095838092 0.14739241 0.69400001
0.097580008 0.14802951 0.69700003
0.099475242 0.1488791 0.70099998
0.1010981 0.14930379 0.70300001
0.1025829 0.1495162 0.70400012
0.1040714 0.1497286 0.70499998
0.1057133 0.15015329 0.70700002
0.1142762 0.1507905 0.70999998
-0.032944761 0.15771431 0.73600012
-0.0059142858 0.1478572 0.69000012
-0.0046000001 0.1478572 0.69000012
-0.003280953 0.1476429 0.68900001
-0.00196 0.147 0.68599999
-0.00065142859 0.1465714 0.68400002
0.00064666668 0.1455 0.67900002
0.001937143 0.1452857 0.67799997
0.003228571 0.1452857 0.67799997
0.0045266668 0.1455 0.67900002
0.0058114291 0.1452857 0.67799997
0.007071428 0.1446429 0.67500001
0.008357143 0.1446429 0.67500001
0.0096428571 0.1446429 0.67500001
0.01092857 0.1446429 0.67500001
0.01219619 0.1444286 0.67400002
0.01348 0.1444286 0.67400002
0.01472 0.14399999 0.67200011
0.016000001 0.14399999 0.67200011
0.017279999 0.14399999 0.67200011
0.01853238 0.1437857 0.671
0.019810479 0.1437857 0.671
0.02108857 0.1437857 0.671
0.022366671 0.1437857 0.671
0.02364476 0.1437857 0.671
0.02488572 0.14357141 0.67000002
0.026161909 0.14357141 0.67000002
0.0274381 0.14357141 0.67000002
0.02871429 0.14357141 0.67000002
0.030035241 0.1437857 0.671
0.03131333 0.1437857 0.671
0.040199999 0.14357141 0.67000002
0.04147619 0.14357141 0.67000002
0.042752381 0.14357141 0.67000002
0.044028569 0.14357141 0.67000002
0.04530476 0.14357141 0.67000002
0.046580952 0.14357141 0.67000002
0.047857139 0.14357141 0.67000002
0.049059998 0.1433571 0.66900003
0.050409518 0.14357141 0.67000002
0.05160857 0.1433571 0.66900003
0.052882861 0.1433571 0.66900003
0.0542381 0.14357141 0.67000002
0.055514291 0.14357141 0.67000002
0.056790471 0.14357141 0.67000002
0.05806667 0.14357141 0.67000002
0.05943143 0.1437857 0.671
0.060709521 0.1437857 0.671
0.06198762 0.1437857 0.671
0.063360013 0.14399999 0.67200011
0.06464 0.14399999 0.67200011
0.066116191 0.1444286 0.67400002
0.067400001 0.1444286 0.67400002
0.068480007 0.14399999 0.67200011
0.06996762 0.1444286 0.67400002
0.07125143 0.1444286 0.67400002
0.072642863 0.1446429 0.67500001
0.073819049 0.1444286 0.67400002
0.075214282 0.1446429 0.67500001
0.076500013 0.1446429 0.67500001
0.077900954 0.1448572 0.67600012
0.079188578 0.1448572 0.67600012
0.080476187 0.1448572 0.67600012
0.082005717 0.1452857 0.67799997
0.083420001 0.1455 0.67900002
0.084588572 0.1452857 0.67799997
0.085626669 0.1448572 0.67600012
0.088842861 0.14807139 0.69099998
0.09042 0.1485 0.69300002
0.091739997 0.1485 0.69300002
0.093060002 0.1485 0.69300002
0.094652392 0.1489286 0.69500011
0.096252382 0.1493572 0.69700003
0.097719997 0.1495714 0.69800001
0.099475242 0.1502143 0.70099998
0.1010981 0.1506429 0.70300001
0.1027286 0.1510714 0.70499998
0.1043667 0.1515 0.70700002
