# .PCD v0.7 - Point Cloud Data file format
VERSION 0.7
FIELDS x y z
SIZE 4 4 4
TYPE F F F
COUNT 1 1 1
WIDTH 1412
HEIGHT 1
VIEWPOINT 0 0 0 1 0 0 0
POINTS 1412
DATA ascii
0.11111404 -0.16629393 0.22960785
0.11111404 -0.16629393 0.22176471
0.11111404 -0.16629393 0.21392158
0.11111404 -0.16629393 0.20607844
0.11111404 -0.16629393 0.1982353
0.11111404 -0.16629393 0.19039215
0.11111404 -0.16629393 0.18254901
0.11111404 -0.16629393 0.17470588
0.11111404 -0.16629393 0.16686274
0.11111404 -0.16629393 0.1590196
0.11111404 -0.16629393 0.15117647
0.11111404 -0.16629393 0.14333335
0.11111404 -0.16629393 0.13549021
0.11111404 -0.16629393 0.12764707
0.11111404 -0.16629393 0.11980393
0.11111404 -0.16629393 0.11196079
0.11111404 -0.16629393 0.10411765
0.11111404 -0.16629393 0.09627451
0.11111404 -0.16629393 0.088431373
0.11111404 -0.16629393 0.080588236
0.11111404 -0.16629393 0.0727451
0.11111404 -0.16629393 0.064901963
0.11111404 -0.16629393 0.057058826
0.11111404 -0.16629393 0.049215689
0.11111404 -0.16629393 0.041372553
0.11111404 -0.16629393 0.033529416
0.11111404 -0.16629393 0.025686279
0.11111404 -0.16629393 0.017843127
0.0765367 -0.1847759 0.40215686
0.0765367 -0.1847759 0.39431372
0.0765367 -0.1847759 0.38647059
0.0765367 -0.1847759 0.37862745
0.0765367 -0.1847759 0.37078431
0.0765367 -0.1847759 0.36294118
0.0765367 -0.1847759 0.35509804
0.0765367 -0.1847759 0.3472549
0.0765367 -0.1847759 0.33941177
0.0765367 -0.1847759 0.33156863
0.0765367 -0.1847759 0.32372549
0.0765367 -0.1847759 0.31588235
0.0765367 -0.1847759 0.30803922
0.0765367 -0.1847759 0.30019608
0.0765367 -0.1847759 0.29235294
0.0765367 -0.1847759 0.28450981
0.0765367 -0.1847759 0.27666667
0.0765367 -0.1847759 0.26882353
0.0765367 -0.1847759 0.2609804
0.0765367 -0.1847759 0.25313726
0.0765367 -0.1847759 0.24529412
0.0765367 -0.1847759 0.23745099
0.0765367 -0.1847759 0.22960785
0.0765367 -0.1847759 0.22176471
0.0765367 -0.1847759 0.21392158
0.0765367 -0.1847759 0.20607844
0.0765367 -0.1847759 0.1982353
0.0765367 -0.1847759 0.19039215
0.0765367 -0.1847759 0.18254901
0.0765367 -0.1847759 0.17470588
0.0765367 -0.1847759 0.16686274
0.0765367 -0.1847759 0.1590196
0.0765367 -0.1847759 0.15117647
0.0765367 -0.1847759 0.14333335
0.0765367 -0.1847759 0.13549021
0.0765367 -0.1847759 0.12764707
0.0765367 -0.1847759 0.11980393
0.0765367 -0.1847759 0.11196079
0.0765367 -0.1847759 0.10411765
0.0765367 -0.1847759 0.09627451
0.0765367 -0.1847759 0.088431373
0.0765367 -0.1847759 0.080588236
0.0765367 -0.1847759 0.0727451
0.0765367 -0.1847759 0.064901963
0.0765367 -0.1847759 0.057058826
0.0765367 -0.1847759 0.049215689
0.0765367 -0.1847759 0.041372553
0.0765367 -0.1847759 0.033529416
0.0765367 -0.1847759 0.025686279
0.0765367 -0.1847759 0.017843127
0.039018061 -0.19615707 0.40215686
0.039018061 -0.19615707 0.39431372
0.039018061 -0.19615707 0.38647059
0.039018061 -0.19615707 0.37862745
0.039018061 -0.19615707 0.37078431
0.039018061 -0.19615707 0.36294118
0.039018061 -0.19615707 0.35509804
0.039018061 -0.19615707 0.3472549
0.039018061 -0.19615707 0.33941177
0.039018061 -0.19615707 0.33156863
0.039018061 -0.19615707 0.32372549
0.039018061 -0.19615707 0.31588235
0.039018061 -0.19615707 0.30803922
0.039018061 -0.19615707 0.30019608
0.039018061 -0.19615707 0.29235294
0.039018061 -0.19615707 0.28450981
0.039018061 -0.19615707 0.27666667
0.039018061 -0.19615707 0.26882353
0.039018061 -0.19615707 0.2609804
0.039018061 -0.19615707 0.25313726
0.039018061 -0.19615707 0.24529412
0.039018061 -0.19615707 0.23745099
0.039018061 -0.19615707 0.22960785
0.039018061 -0.19615707 0.22176471
0.039018061 -0.19615707 0.21392158
0.039018061 -0.19615707 0.20607844
0.039018061 -0.19615707 0.1982353
0.039018061 -0.19615707 0.19039215
0.039018061 -0.19615707 0.18254901
0.039018061 -0.19615707 0.17470588
0.039018061 -0.19615707 0.16686274
0.039018061 -0.19615707 0.1590196
0.039018061 -0.19615707 0.15117647
0.039018061 -0.19615707 0.14333335
0.039018061 -0.19615707 0.13549021
0.039018061 -0.19615707 0.12764707
0.039018061 -0.19615707 0.11980393
0.039018061 -0.19615707 0.11196079
0.039018061 -0.19615707 0.10411765
0.039018061 -0.19615707 0.09627451
0.039018061 -0.19615707 0.088431373
0.039018061 -0.19615707 0.080588236
0.039018061 -0.19615707 0.0727451
0.039018061 -0.19615707 0.064901963
0.039018061 -0.19615707 0.057058826
0.039018061 -0.19615707 0.049215689
0.039018061 -0.19615707 0.041372553
0.039018061 -0.19615707 0.033529416
0.039018061 -0.19615707 0.025686279
0.039018061 -0.19615707 0.017843127
-1.7484556e-08 -0.2 0.40215686
-1.7484556e-08 -0.2 0.39431372
-1.7484556e-08 -0.2 0.38647059
-1.7484556e-08 -0.2 0.37862745
-1.7484556e-08 -0.2 0.37078431
-1.7484556e-08 -0.2 0.36294118
-1.7484556e-08 -0.2 0.35509804
-1.7484556e-08 -0.2 0.3472549
-1.7484556e-08 -0.2 0.33941177
-1.7484556e-08 -0.2 0.33156863
-1.7484556e-08 -0.2 0.32372549
-1.7484556e-08 -0.2 0.31588235
-1.7484556e-08 -0.2 0.30803922
-1.7484556e-08 -0.2 0.30019608
-1.7484556e-08 -0.2 0.29235294
-1.7484556e-08 -0.2 0.28450981
-1.7484556e-08 -0.2 0.27666667
-1.7484556e-08 -0.2 0.26882353
-1.7484556e-08 -0.2 0.2609804
-1.7484556e-08 -0.2 0.25313726
-1.7484556e-08 -0.2 0.24529412
-1.7484556e-08 -0.2 0.23745099
-1.7484556e-08 -0.2 0.22960785
-1.7484556e-08 -0.2 0.22176471
-1.7484556e-08 -0.2 0.21392158
-1.7484556e-08 -0.2 0.20607844
-1.7484556e-08 -0.2 0.1982353
-1.7484556e-08 -0.2 0.19039215
-1.7484556e-08 -0.2 0.18254901
-1.7484556e-08 -0.2 0.17470588
-1.7484556e-08 -0.2 0.16686274
-1.7484556e-08 -0.2 0.1590196
-1.7484556e-08 -0.2 0.15117647
-1.7484556e-08 -0.2 0.14333335
-1.7484556e-08 -0.2 0.13549021
-1.7484556e-08 -0.2 0.12764707
-1.7484556e-08 -0.2 0.11980393
-1.7484556e-08 -0.2 0.11196079
-1.7484556e-08 -0.2 0.10411765
-1.7484556e-08 -0.2 0.09627451
-1.7484556e-08 -0.2 0.088431373
-1.7484556e-08 -0.2 0.080588236
-1.7484556e-08 -0.2 0.0727451
-1.7484556e-08 -0.2 0.064901963
-1.7484556e-08 -0.2 0.057058826
-1.7484556e-08 -0.2 0.049215689
-1.7484556e-08 -0.2 0.041372553
-1.7484556e-08 -0.2 0.033529416
-1.7484556e-08 -0.2 0.025686279
-1.7484556e-08 -0.2 0.017843127
-0.03901805 -0.19615707 0.40215686
-0.03901805 -0.19615707 0.39431372
-0.03901805 -0.19615707 0.38647059
-0.03901805 -0.19615707 0.37862745
-0.03901805 -0.19615707 0.37078431
-0.03901805 -0.19615707 0.36294118
-0.03901805 -0.19615707 0.35509804
-0.03901805 -0.19615707 0.3472549
-0.03901805 -0.19615707 0.33941177
-0.03901805 -0.19615707 0.33156863
-0.03901805 -0.19615707 0.32372549
-0.03901805 -0.19615707 0.31588235
-0.03901805 -0.19615707 0.30803922
-0.03901805 -0.19615707 0.30019608
-0.03901805 -0.19615707 0.29235294
-0.03901805 -0.19615707 0.28450981
-0.03901805 -0.19615707 0.27666667
-0.03901805 -0.19615707 0.26882353
-0.03901805 -0.19615707 0.2609804
-0.03901805 -0.19615707 0.25313726
-0.03901805 -0.19615707 0.24529412
-0.03901805 -0.19615707 0.23745099
-0.03901805 -0.19615707 0.22960785
-0.03901805 -0.19615707 0.22176471
-0.03901805 -0.19615707 0.21392158
-0.03901805 -0.19615707 0.20607844
-0.03901805 -0.19615707 0.1982353
-0.03901805 -0.19615707 0.19039215
-0.03901805 -0.19615707 0.18254901
-0.03901805 -0.19615707 0.17470588
-0.03901805 -0.19615707 0.16686274
-0.03901805 -0.19615707 0.1590196
-0.03901805 -0.19615707 0.15117647
-0.03901805 -0.19615707 0.14333335
-0.03901805 -0.19615707 0.13549021
-0.03901805 -0.19615707 0.12764707
-0.03901805 -0.19615707 0.11980393
-0.03901805 -0.19615707 0.11196079
-0.03901805 -0.19615707 0.10411765
-0.03901805 -0.19615707 0.09627451
-0.03901805 -0.19615707 0.088431373
-0.03901805 -0.19615707 0.080588236
-0.03901805 -0.19615707 0.0727451
-0.03901805 -0.19615707 0.064901963
-0.03901805 -0.19615707 0.057058826
-0.03901805 -0.19615707 0.049215689
-0.03901805 -0.19615707 0.041372553
-0.03901805 -0.19615707 0.033529416
-0.03901805 -0.19615707 0.025686279
-0.03901805 -0.19615707 0.017843127
-0.076536685 -0.1847759 0.40215686
-0.076536685 -0.1847759 0.39431372
-0.076536685 -0.1847759 0.38647059
-0.076536685 -0.1847759 0.37862745
-0.076536685 -0.1847759 0.37078431
-0.076536685 -0.1847759 0.36294118
-0.076536685 -0.1847759 0.35509804
-0.076536685 -0.1847759 0.3472549
-0.076536685 -0.1847759 0.33941177
-0.076536685 -0.1847759 0.33156863
-0.076536685 -0.1847759 0.32372549
-0.076536685 -0.1847759 0.31588235
-0.076536685 -0.1847759 0.30803922
-0.076536685 -0.1847759 0.30019608
-0.076536685 -0.1847759 0.29235294
-0.076536685 -0.1847759 0.28450981
-0.076536685 -0.1847759 0.27666667
-0.076536685 -0.1847759 0.26882353
-0.076536685 -0.1847759 0.2609804
-0.076536685 -0.1847759 0.25313726
-0.076536685 -0.1847759 0.24529412
-0.076536685 -0.1847759 0.23745099
-0.076536685 -0.1847759 0.22960785
-0.076536685 -0.1847759 0.22176471
-0.076536685 -0.1847759 0.21392158
-0.076536685 -0.1847759 0.20607844
-0.076536685 -0.1847759 0.1982353
-0.076536685 -0.1847759 0.19039215
-0.076536685 -0.1847759 0.18254901
-0.076536685 -0.1847759 0.17470588
-0.076536685 -0.1847759 0.16686274
-0.076536685 -0.1847759 0.1590196
-0.076536685 -0.1847759 0.15117647
-0.076536685 -0.1847759 0.14333335
-0.076536685 -0.1847759 0.13549021
-0.076536685 -0.1847759 0.12764707
-0.076536685 -0.1847759 0.11980393
-0.076536685 -0.1847759 0.11196079
-0.076536685 -0.1847759 0.10411765
-0.076536685 -0.1847759 0.09627451
-0.076536685 -0.1847759 0.088431373
-0.076536685 -0.1847759 0.080588236
-0.076536685 -0.1847759 0.0727451
-0.076536685 -0.1847759 0.064901963
-0.076536685 -0.1847759 0.057058826
-0.076536685 -0.1847759 0.049215689
-0.076536685 -0.1847759 0.041372553
-0.076536685 -0.1847759 0.033529416
-0.076536685 -0.1847759 0.025686279
-0.076536685 -0.1847759 0.017843127
-0.11111406 -0.1662939 0.40215686
-0.11111406 -0.1662939 0.39431372
-0.11111406 -0.1662939 0.38647059
-0.11111406 -0.1662939 0.37862745
-0.11111406 -0.1662939 0.37078431
-0.11111406 -0.1662939 0.36294118
-0.11111406 -0.1662939 0.35509804
-0.11111406 -0.1662939 0.3472549
-0.11111406 -0.1662939 0.33941177
-0.11111406 -0.1662939 0.33156863
-0.11111406 -0.1662939 0.32372549
-0.11111406 -0.1662939 0.31588235
-0.11111406 -0.1662939 0.30803922
-0.11111406 -0.1662939 0.30019608
-0.11111406 -0.1662939 0.29235294
-0.11111406 -0.1662939 0.28450981
-0.11111406 -0.1662939 0.27666667
-0.11111406 -0.1662939 0.26882353
-0.11111406 -0.1662939 0.2609804
-0.11111406 -0.1662939 0.25313726
-0.11111406 -0.1662939 0.24529412
-0.11111406 -0.1662939 0.23745099
-0.11111406 -0.1662939 0.22960785
-0.11111406 -0.1662939 0.22176471
-0.11111406 -0.1662939 0.21392158
-0.11111406 -0.1662939 0.20607844
-0.11111406 -0.1662939 0.1982353
-0.11111406 -0.1662939 0.19039215
-0.11111406 -0.1662939 0.18254901
-0.11111406 -0.1662939 0.17470588
-0.11111406 -0.1662939 0.16686274
-0.11111406 -0.1662939 0.1590196
-0.11111406 -0.1662939 0.15117647
-0.11111406 -0.1662939 0.14333335
-0.11111406 -0.1662939 0.13549021
-0.11111406 -0.1662939 0.12764707
-0.11111406 -0.1662939 0.11980393
-0.11111406 -0.1662939 0.11196079
-0.11111406 -0.1662939 0.10411765
-0.11111406 -0.1662939 0.09627451
-0.11111406 -0.1662939 0.088431373
-0.11111406 -0.1662939 0.080588236
-0.11111406 -0.1662939 0.0727451
-0.11111406 -0.1662939 0.064901963
-0.11111406 -0.1662939 0.057058826
-0.11111406 -0.1662939 0.049215689
-0.11111406 -0.1662939 0.041372553
-0.11111406 -0.1662939 0.033529416
-0.11111406 -0.1662939 0.025686279
-0.11111406 -0.1662939 0.017843127
-0.14142135 -0.14142136 0.40215686
-0.14142135 -0.14142136 0.39431372
-0.14142135 -0.14142136 0.38647059
-0.14142135 -0.14142136 0.37862745
-0.14142135 -0.14142136 0.37078431
-0.14142135 -0.14142136 0.36294118
-0.14142135 -0.14142136 0.35509804
-0.14142135 -0.14142136 0.3472549
-0.14142135 -0.14142136 0.33941177
-0.14142135 -0.14142136 0.33156863
-0.14142135 -0.14142136 0.32372549
-0.14142135 -0.14142136 0.31588235
-0.14142135 -0.14142136 0.30803922
-0.14142135 -0.14142136 0.30019608
-0.14142135 -0.14142136 0.29235294
-0.14142135 -0.14142136 0.28450981
-0.14142135 -0.14142136 0.27666667
-0.14142135 -0.14142136 0.26882353
-0.14142135 -0.14142136 0.2609804
-0.14142135 -0.14142136 0.25313726
-0.14142135 -0.14142136 0.24529412
-0.14142135 -0.14142136 0.23745099
-0.14142135 -0.14142136 0.22960785
-0.14142135 -0.14142136 0.22176471
-0.14142135 -0.14142136 0.21392158
-0.14142135 -0.14142136 0.20607844
-0.14142135 -0.14142136 0.1982353
-0.14142135 -0.14142136 0.19039215
-0.14142135 -0.14142136 0.18254901
-0.14142135 -0.14142136 0.17470588
-0.14142135 -0.14142136 0.16686274
-0.14142135 -0.14142136 0.1590196
-0.14142135 -0.14142136 0.15117647
-0.14142135 -0.14142136 0.14333335
-0.14142135 -0.14142136 0.13549021
-0.14142135 -0.14142136 0.12764707
-0.14142135 -0.14142136 0.11980393
-0.14142135 -0.14142136 0.11196079
-0.14142135 -0.14142136 0.10411765
-0.14142135 -0.14142136 0.09627451
-0.14142135 -0.14142136 0.088431373
-0.14142135 -0.14142136 0.080588236
-0.14142135 -0.14142136 0.0727451
-0.14142135 -0.14142136 0.064901963
-0.14142135 -0.14142136 0.057058826
-0.14142135 -0.14142136 0.049215689
-0.14142135 -0.14142136 0.041372553
-0.14142135 -0.14142136 0.033529416
-0.14142135 -0.14142136 0.025686279
-0.14142135 -0.14142136 0.017843127
-0.1662939 -0.11111408 0.40215686
-0.1662939 -0.11111408 0.39431372
-0.1662939 -0.11111408 0.38647059
-0.1662939 -0.11111408 0.37862745
-0.1662939 -0.11111408 0.37078431
-0.1662939 -0.11111408 0.36294118
-0.1662939 -0.11111408 0.35509804
-0.1662939 -0.11111408 0.3472549
-0.1662939 -0.11111408 0.33941177
-0.1662939 -0.11111408 0.33156863
-0.1662939 -0.11111408 0.32372549
-0.1662939 -0.11111408 0.31588235
-0.1662939 -0.11111408 0.30803922
-0.1662939 -0.11111408 0.30019608
-0.1662939 -0.11111408 0.29235294
-0.1662939 -0.11111408 0.28450981
-0.1662939 -0.11111408 0.27666667
-0.1662939 -0.11111408 0.26882353
-0.1662939 -0.11111408 0.2609804
-0.1662939 -0.11111408 0.25313726
-0.1662939 -0.11111408 0.24529412
-0.1662939 -0.11111408 0.23745099
-0.1662939 -0.11111408 0.22960785
-0.1662939 -0.11111408 0.22176471
-0.1662939 -0.11111408 0.21392158
-0.1662939 -0.11111408 0.20607844
-0.1662939 -0.11111408 0.1982353
-0.1662939 -0.11111408 0.19039215
-0.1662939 -0.11111408 0.18254901
-0.1662939 -0.11111408 0.17470588
-0.1662939 -0.11111408 0.16686274
-0.1662939 -0.11111408 0.1590196
-0.1662939 -0.11111408 0.15117647
-0.1662939 -0.11111408 0.14333335
-0.1662939 -0.11111408 0.13549021
-0.1662939 -0.11111408 0.12764707
-0.1662939 -0.11111408 0.11980393
-0.1662939 -0.11111408 0.11196079
-0.1662939 -0.11111408 0.10411765
-0.1662939 -0.11111408 0.09627451
-0.1662939 -0.11111408 0.088431373
-0.1662939 -0.11111408 0.080588236
-0.1662939 -0.11111408 0.0727451
-0.1662939 -0.11111408 0.064901963
-0.1662939 -0.11111408 0.057058826
-0.1662939 -0.11111408 0.049215689
-0.1662939 -0.11111408 0.041372553
-0.1662939 -0.11111408 0.033529416
-0.1662939 -0.11111408 0.025686279
-0.1662939 -0.11111408 0.017843127
-0.1847759 -0.076536715 0.40215686
-0.1847759 -0.076536715 0.39431372
-0.1847759 -0.076536715 0.38647059
-0.1847759 -0.076536715 0.37862745
-0.1847759 -0.076536715 0.37078431
-0.1847759 -0.076536715 0.36294118
-0.1847759 -0.076536715 0.35509804
-0.1847759 -0.076536715 0.3472549
-0.1847759 -0.076536715 0.33941177
-0.1847759 -0.076536715 0.33156863
-0.1847759 -0.076536715 0.32372549
-0.1847759 -0.076536715 0.31588235
-0.1847759 -0.076536715 0.30803922
-0.1847759 -0.076536715 0.30019608
-0.1847759 -0.076536715 0.29235294
-0.1847759 -0.076536715 0.28450981
-0.1847759 -0.076536715 0.27666667
-0.1847759 -0.076536715 0.26882353
-0.1847759 -0.076536715 0.2609804
-0.1847759 -0.076536715 0.25313726
-0.1847759 -0.076536715 0.24529412
-0.1847759 -0.076536715 0.23745099
-0.1847759 -0.076536715 0.22960785
-0.1847759 -0.076536715 0.22176471
-0.1847759 -0.076536715 0.21392158
-0.1847759 -0.076536715 0.20607844
-0.1847759 -0.076536715 0.1982353
-0.1847759 -0.076536715 0.19039215
-0.1847759 -0.076536715 0.18254901
-0.1847759 -0.076536715 0.17470588
-0.1847759 -0.076536715 0.16686274
-0.1847759 -0.076536715 0.1590196
-0.1847759 -0.076536715 0.15117647
-0.1847759 -0.076536715 0.14333335
-0.1847759 -0.076536715 0.13549021
-0.1847759 -0.076536715 0.12764707
-0.1847759 -0.076536715 0.11980393
-0.1847759 -0.076536715 0.11196079
-0.1847759 -0.076536715 0.10411765
-0.1847759 -0.076536715 0.09627451
-0.1847759 -0.076536715 0.088431373
-0.1847759 -0.076536715 0.080588236
-0.1847759 -0.076536715 0.0727451
-0.1847759 -0.076536715 0.064901963
-0.1847759 -0.076536715 0.057058826
-0.1847759 -0.076536715 0.049215689
-0.1847759 -0.076536715 0.041372553
-0.1847759 -0.076536715 0.033529416
-0.1847759 -0.076536715 0.025686279
-0.1847759 -0.076536715 0.017843127
-0.19615705 -0.039018076 0.40215686
-0.19615705 -0.039018076 0.39431372
-0.19615705 -0.039018076 0.38647059
-0.19615705 -0.039018076 0.37862745
-0.19615705 -0.039018076 0.37078431
-0.19615705 -0.039018076 0.36294118
-0.19615705 -0.039018076 0.35509804
-0.19615705 -0.039018076 0.3472549
-0.19615705 -0.039018076 0.33941177
-0.19615705 -0.039018076 0.33156863
-0.19615705 -0.039018076 0.32372549
-0.19615705 -0.039018076 0.31588235
-0.19615705 -0.039018076 0.30803922
-0.19615705 -0.039018076 0.30019608
-0.19615705 -0.039018076 0.29235294
-0.19615705 -0.039018076 0.28450981
-0.19615705 -0.039018076 0.27666667
-0.19615705 -0.039018076 0.26882353
-0.19615705 -0.039018076 0.2609804
-0.19615705 -0.039018076 0.25313726
-0.19615705 -0.039018076 0.24529412
-0.19615705 -0.039018076 0.23745099
-0.19615705 -0.039018076 0.22960785
-0.19615705 -0.039018076 0.22176471
-0.19615705 -0.039018076 0.21392158
-0.19615705 -0.039018076 0.20607844
-0.19615705 -0.039018076 0.1982353
-0.19615705 -0.039018076 0.19039215
-0.19615705 -0.039018076 0.18254901
-0.19615705 -0.039018076 0.17470588
-0.19615705 -0.039018076 0.16686274
-0.19615705 -0.039018076 0.1590196
-0.19615705 -0.039018076 0.15117647
-0.19615705 -0.039018076 0.14333335
-0.19615705 -0.039018076 0.13549021
-0.19615705 -0.039018076 0.12764707
-0.19615705 -0.039018076 0.11980393
-0.19615705 -0.039018076 0.11196079
-0.19615705 -0.039018076 0.10411765
-0.19615705 -0.039018076 0.09627451
-0.19615705 -0.039018076 0.088431373
-0.19615705 -0.039018076 0.080588236
-0.19615705 -0.039018076 0.0727451
-0.19615705 -0.039018076 0.064901963
-0.19615705 -0.039018076 0.057058826
-0.19615705 -0.039018076 0.049215689
-0.19615705 -0.039018076 0.041372553
-0.19615705 -0.039018076 0.033529416
-0.19615705 -0.039018076 0.025686279
-0.19615705 -0.039018076 0.017843127
-0.2 2.3849762e-09 0.40215686
-0.2 2.3849762e-09 0.39431372
-0.2 2.3849762e-09 0.38647059
-0.2 2.3849762e-09 0.37862745
-0.2 2.3849762e-09 0.37078431
-0.2 2.3849762e-09 0.36294118
-0.2 2.3849762e-09 0.35509804
-0.2 2.3849762e-09 0.3472549
-0.2 2.3849762e-09 0.33941177
-0.2 2.3849762e-09 0.33156863
-0.2 2.3849762e-09 0.32372549
-0.2 2.3849762e-09 0.31588235
-0.2 2.3849762e-09 0.30803922
-0.2 2.3849762e-09 0.30019608
-0.2 2.3849762e-09 0.29235294
-0.2 2.3849762e-09 0.28450981
-0.2 2.3849762e-09 0.27666667
-0.2 2.3849762e-09 0.26882353
-0.2 2.3849762e-09 0.2609804
-0.2 2.3849762e-09 0.25313726
-0.2 2.3849762e-09 0.24529412
-0.2 2.3849762e-09 0.23745099
-0.2 2.3849762e-09 0.22960785
-0.2 2.3849762e-09 0.22176471
-0.2 2.3849762e-09 0.21392158
-0.2 2.3849762e-09 0.20607844
-0.2 2.3849762e-09 0.1982353
-0.2 2.3849762e-09 0.19039215
-0.2 2.3849762e-09 0.18254901
-0.2 2.3849762e-09 0.17470588
-0.2 2.3849762e-09 0.16686274
-0.2 2.3849762e-09 0.1590196
-0.2 2.3849762e-09 0.15117647
-0.2 2.3849762e-09 0.14333335
-0.2 2.3849762e-09 0.13549021
-0.2 2.3849762e-09 0.12764707
-0.2 2.3849762e-09 0.11980393
-0.2 2.3849762e-09 0.11196079
-0.2 2.3849762e-09 0.10411765
-0.2 2.3849762e-09 0.09627451
-0.2 2.3849762e-09 0.088431373
-0.2 2.3849762e-09 0.080588236
-0.2 2.3849762e-09 0.0727451
-0.2 2.3849762e-09 0.064901963
-0.2 2.3849762e-09 0.057058826
-0.2 2.3849762e-09 0.049215689
-0.2 2.3849762e-09 0.041372553
-0.2 2.3849762e-09 0.033529416
-0.2 2.3849762e-09 0.025686279
-0.2 2.3849762e-09 0.017843127
-0.19615705 0.039018083 0.40215686
-0.19615705 0.039018083 0.39431372
-0.19615705 0.039018083 0.38647059
-0.19615705 0.039018083 0.37862745
-0.19615705 0.039018083 0.37078431
-0.19615705 0.039018083 0.36294118
-0.19615705 0.039018083 0.35509804
-0.19615705 0.039018083 0.3472549
-0.19615705 0.039018083 0.33941177
-0.19615705 0.039018083 0.33156863
-0.19615705 0.039018083 0.32372549
-0.19615705 0.039018083 0.31588235
-0.19615705 0.039018083 0.30803922
-0.19615705 0.039018083 0.30019608
-0.19615705 0.039018083 0.29235294
-0.19615705 0.039018083 0.28450981
-0.19615705 0.039018083 0.27666667
-0.19615705 0.039018083 0.26882353
-0.19615705 0.039018083 0.2609804
-0.19615705 0.039018083 0.25313726
-0.19615705 0.039018083 0.24529412
-0.19615705 0.039018083 0.23745099
-0.19615705 0.039018083 0.22960785
-0.19615705 0.039018083 0.22176471
-0.19615705 0.039018083 0.21392158
-0.19615705 0.039018083 0.20607844
-0.19615705 0.039018083 0.1982353
-0.19615705 0.039018083 0.19039215
-0.19615705 0.039018083 0.18254901
-0.19615705 0.039018083 0.17470588
-0.19615705 0.039018083 0.16686274
-0.19615705 0.039018083 0.1590196
-0.19615705 0.039018083 0.15117647
-0.19615705 0.039018083 0.14333335
-0.19615705 0.039018083 0.13549021
-0.19615705 0.039018083 0.12764707
-0.19615705 0.039018083 0.11980393
-0.19615705 0.039018083 0.11196079
-0.19615705 0.039018083 0.10411765
-0.19615705 0.039018083 0.09627451
-0.19615705 0.039018083 0.088431373
-0.19615705 0.039018083 0.080588236
-0.19615705 0.039018083 0.0727451
-0.19615705 0.039018083 0.064901963
-0.19615705 0.039018083 0.057058826
-0.19615705 0.039018083 0.049215689
-0.19615705 0.039018083 0.041372553
-0.19615705 0.039018083 0.033529416
-0.19615705 0.039018083 0.025686279
-0.19615705 0.039018083 0.017843127
-0.18477589 0.076536722 0.40215686
-0.18477589 0.076536722 0.39431372
-0.18477589 0.076536722 0.38647059
-0.18477589 0.076536722 0.37862745
-0.18477589 0.076536722 0.37078431
-0.18477589 0.076536722 0.36294118
-0.18477589 0.076536722 0.35509804
-0.18477589 0.076536722 0.3472549
-0.18477589 0.076536722 0.33941177
-0.18477589 0.076536722 0.33156863
-0.18477589 0.076536722 0.32372549
-0.18477589 0.076536722 0.31588235
-0.18477589 0.076536722 0.30803922
-0.18477589 0.076536722 0.30019608
-0.18477589 0.076536722 0.29235294
-0.18477589 0.076536722 0.28450981
-0.18477589 0.076536722 0.27666667
-0.18477589 0.076536722 0.26882353
-0.18477589 0.076536722 0.2609804
-0.18477589 0.076536722 0.25313726
-0.18477589 0.076536722 0.24529412
-0.18477589 0.076536722 0.23745099
-0.18477589 0.076536722 0.22960785
-0.18477589 0.076536722 0.22176471
-0.18477589 0.076536722 0.21392158
-0.18477589 0.076536722 0.20607844
-0.18477589 0.076536722 0.1982353
-0.18477589 0.076536722 0.19039215
-0.18477589 0.076536722 0.18254901
-0.18477589 0.076536722 0.17470588
-0.18477589 0.076536722 0.16686274
-0.18477589 0.076536722 0.1590196
-0.18477589 0.076536722 0.15117647
-0.18477589 0.076536722 0.14333335
-0.18477589 0.076536722 0.13549021
-0.18477589 0.076536722 0.12764707
-0.18477589 0.076536722 0.11980393
-0.18477589 0.076536722 0.11196079
-0.18477589 0.076536722 0.10411765
-0.18477589 0.076536722 0.09627451
-0.18477589 0.076536722 0.088431373
-0.18477589 0.076536722 0.080588236
-0.18477589 0.076536722 0.0727451
-0.18477589 0.076536722 0.064901963
-0.18477589 0.076536722 0.057058826
-0.18477589 0.076536722 0.049215689
-0.18477589 0.076536722 0.041372553
-0.18477589 0.076536722 0.033529416
-0.18477589 0.076536722 0.025686279
-0.18477589 0.076536722 0.017843127
-0.16629395 0.11111402 0.40215686
-0.16629395 0.11111402 0.39431372
-0.16629395 0.11111402 0.38647059
-0.16629395 0.11111402 0.37862745
-0.16629395 0.11111402 0.37078431
-0.16629395 0.11111402 0.36294118
-0.16629395 0.11111402 0.35509804
-0.16629395 0.11111402 0.3472549
-0.16629395 0.11111402 0.33941177
-0.16629395 0.11111402 0.33156863
-0.16629395 0.11111402 0.32372549
-0.16629395 0.11111402 0.31588235
-0.16629395 0.11111402 0.30803922
-0.16629395 0.11111402 0.30019608
-0.16629395 0.11111402 0.29235294
-0.16629395 0.11111402 0.28450981
-0.16629395 0.11111402 0.27666667
-0.16629395 0.11111402 0.26882353
-0.16629395 0.11111402 0.2609804
-0.16629395 0.11111402 0.25313726
-0.16629395 0.11111402 0.24529412
-0.16629395 0.11111402 0.23745099
-0.16629395 0.11111402 0.22960785
-0.16629395 0.11111402 0.22176471
-0.16629395 0.11111402 0.21392158
-0.16629395 0.11111402 0.20607844
-0.16629395 0.11111402 0.1982353
-0.16629395 0.11111402 0.19039215
-0.16629395 0.11111402 0.18254901
-0.16629395 0.11111402 0.17470588
-0.16629395 0.11111402 0.16686274
-0.16629395 0.11111402 0.1590196
-0.16629395 0.11111402 0.15117647
-0.16629395 0.11111402 0.14333335
-0.16629395 0.11111402 0.13549021
-0.16629395 0.11111402 0.12764707
-0.16629395 0.11111402 0.11980393
-0.16629395 0.11111402 0.11196079
-0.16629395 0.11111402 0.10411765
-0.16629395 0.11111402 0.09627451
-0.16629395 0.11111402 0.088431373
-0.16629395 0.11111402 0.080588236
-0.16629395 0.11111402 0.0727451
-0.16629395 0.11111402 0.064901963
-0.16629395 0.11111402 0.057058826
-0.16629395 0.11111402 0.049215689
-0.16629395 0.11111402 0.041372553
-0.16629395 0.11111402 0.033529416
-0.16629395 0.11111402 0.025686279
-0.16629395 0.11111402 0.017843127
-0.14142138 0.14142133 0.40215686
-0.14142138 0.14142133 0.39431372
-0.14142138 0.14142133 0.38647059
-0.14142138 0.14142133 0.37862745
-0.14142138 0.14142133 0.37078431
-0.14142138 0.14142133 0.36294118
-0.14142138 0.14142133 0.35509804
-0.14142138 0.14142133 0.3472549
-0.14142138 0.14142133 0.33941177
-0.14142138 0.14142133 0.33156863
-0.14142138 0.14142133 0.32372549
-0.14142138 0.14142133 0.31588235
-0.14142138 0.14142133 0.30803922
-0.14142138 0.14142133 0.30019608
-0.14142138 0.14142133 0.29235294
-0.14142138 0.14142133 0.28450981
-0.14142138 0.14142133 0.27666667
-0.14142138 0.14142133 0.26882353
-0.14142138 0.14142133 0.2609804
-0.14142138 0.14142133 0.25313726
-0.14142138 0.14142133 0.24529412
-0.14142138 0.14142133 0.23745099
-0.14142138 0.14142133 0.22960785
-0.14142138 0.14142133 0.22176471
-0.14142138 0.14142133 0.21392158
-0.14142138 0.14142133 0.20607844
-0.14142138 0.14142133 0.1982353
-0.14142138 0.14142133 0.19039215
-0.14142138 0.14142133 0.18254901
-0.14142138 0.14142133 0.17470588
-0.14142138 0.14142133 0.16686274
-0.14142138 0.14142133 0.1590196
-0.14142138 0.14142133 0.15117647
-0.14142138 0.14142133 0.14333335
-0.14142138 0.14142133 0.13549021
-0.14142138 0.14142133 0.12764707
-0.14142138 0.14142133 0.11980393
-0.14142138 0.14142133 0.11196079
-0.14142138 0.14142133 0.10411765
-0.14142138 0.14142133 0.09627451
-0.14142138 0.14142133 0.088431373
-0.14142138 0.14142133 0.080588236
-0.14142138 0.14142133 0.0727451
-0.14142138 0.14142133 0.064901963
-0.14142138 0.14142133 0.057058826
-0.14142138 0.14142133 0.049215689
-0.14142138 0.14142133 0.041372553
-0.14142138 0.14142133 0.033529416
-0.14142138 0.14142133 0.025686279
-0.14142138 0.14142133 0.017843127
-0.11111406 0.16629392 0.40215686
-0.11111406 0.16629392 0.39431372
-0.11111406 0.16629392 0.38647059
-0.11111406 0.16629392 0.37862745
-0.11111406 0.16629392 0.37078431
-0.11111406 0.16629392 0.36294118
-0.11111406 0.16629392 0.35509804
-0.11111406 0.16629392 0.3472549
-0.11111406 0.16629392 0.33941177
-0.11111406 0.16629392 0.33156863
-0.11111406 0.16629392 0.32372549
-0.11111406 0.16629392 0.31588235
-0.11111406 0.16629392 0.30803922
-0.11111406 0.16629392 0.30019608
-0.11111406 0.16629392 0.29235294
-0.11111406 0.16629392 0.28450981
-0.11111406 0.16629392 0.27666667
-0.11111406 0.16629392 0.26882353
-0.11111406 0.16629392 0.2609804
-0.11111406 0.16629392 0.25313726
-0.11111406 0.16629392 0.24529412
-0.11111406 0.16629392 0.23745099
-0.11111406 0.16629392 0.22960785
-0.11111406 0.16629392 0.22176471
-0.11111406 0.16629392 0.21392158
-0.11111406 0.16629392 0.20607844
-0.11111406 0.16629392 0.1982353
-0.11111406 0.16629392 0.19039215
-0.11111406 0.16629392 0.18254901
-0.11111406 0.16629392 0.17470588
-0.11111406 0.16629392 0.16686274
-0.11111406 0.16629392 0.1590196
-0.11111406 0.16629392 0.15117647
-0.11111406 0.16629392 0.14333335
-0.11111406 0.16629392 0.13549021
-0.11111406 0.16629392 0.12764707
-0.11111406 0.16629392 0.11980393
-0.11111406 0.16629392 0.11196079
-0.11111406 0.16629392 0.10411765
-0.11111406 0.16629392 0.09627451
-0.11111406 0.16629392 0.088431373
-0.11111406 0.16629392 0.080588236
-0.11111406 0.16629392 0.0727451
-0.11111406 0.16629392 0.064901963
-0.11111406 0.16629392 0.057058826
-0.11111406 0.16629392 0.049215689
-0.11111406 0.16629392 0.041372553
-0.11111406 0.16629392 0.033529416
-0.11111406 0.16629392 0.025686279
-0.11111406 0.16629392 0.017843127
-0.076536685 0.18477592 0.40215686
-0.076536685 0.18477592 0.39431372
-0.076536685 0.18477592 0.38647059
-0.076536685 0.18477592 0.37862745
-0.076536685 0.18477592 0.37078431
-0.076536685 0.18477592 0.36294118
-0.076536685 0.18477592 0.35509804
-0.076536685 0.18477592 0.3472549
-0.076536685 0.18477592 0.33941177
-0.076536685 0.18477592 0.33156863
-0.076536685 0.18477592 0.32372549
-0.076536685 0.18477592 0.31588235
-0.076536685 0.18477592 0.30803922
-0.076536685 0.18477592 0.30019608
-0.076536685 0.18477592 0.29235294
-0.076536685 0.18477592 0.28450981
-0.076536685 0.18477592 0.27666667
-0.076536685 0.18477592 0.26882353
-0.076536685 0.18477592 0.2609804
-0.076536685 0.18477592 0.25313726
-0.076536685 0.18477592 0.24529412
-0.076536685 0.18477592 0.23745099
-0.076536685 0.18477592 0.22960785
-0.076536685 0.18477592 0.22176471
-0.076536685 0.18477592 0.21392158
-0.076536685 0.18477592 0.20607844
-0.076536685 0.18477592 0.1982353
-0.076536685 0.18477592 0.19039215
-0.076536685 0.18477592 0.18254901
-0.076536685 0.18477592 0.17470588
-0.076536685 0.18477592 0.16686274
-0.076536685 0.18477592 0.1590196
-0.076536685 0.18477592 0.15117647
-0.076536685 0.18477592 0.14333335
-0.076536685 0.18477592 0.13549021
-0.076536685 0.18477592 0.12764707
-0.076536685 0.18477592 0.11980393
-0.076536685 0.18477592 0.11196079
-0.076536685 0.18477592 0.10411765
-0.076536685 0.18477592 0.09627451
-0.076536685 0.18477592 0.088431373
-0.076536685 0.18477592 0.080588236
-0.076536685 0.18477592 0.0727451
-0.076536685 0.18477592 0.064901963
-0.076536685 0.18477592 0.057058826
-0.076536685 0.18477592 0.049215689
-0.076536685 0.18477592 0.041372553
-0.076536685 0.18477592 0.033529416
-0.076536685 0.18477592 0.025686279
-0.076536685 0.18477592 0.017843127
-0.039018046 0.19615707 0.40215686
-0.039018046 0.19615707 0.39431372
-0.039018046 0.19615707 0.38647059
-0.039018046 0.19615707 0.37862745
-0.039018046 0.19615707 0.37078431
-0.039018046 0.19615707 0.36294118
-0.039018046 0.19615707 0.35509804
-0.039018046 0.19615707 0.3472549
-0.039018046 0.19615707 0.33941177
-0.039018046 0.19615707 0.33156863
-0.039018046 0.19615707 0.32372549
-0.039018046 0.19615707 0.31588235
-0.039018046 0.19615707 0.30803922
-0.039018046 0.19615707 0.30019608
-0.039018046 0.19615707 0.29235294
-0.039018046 0.19615707 0.28450981
-0.039018046 0.19615707 0.27666667
-0.039018046 0.19615707 0.26882353
-0.039018046 0.19615707 0.2609804
-0.039018046 0.19615707 0.25313726
-0.039018046 0.19615707 0.24529412
-0.039018046 0.19615707 0.23745099
-0.039018046 0.19615707 0.22960785
-0.039018046 0.19615707 0.22176471
-0.039018046 0.19615707 0.21392158
-0.039018046 0.19615707 0.20607844
-0.039018046 0.19615707 0.1982353
-0.039018046 0.19615707 0.19039215
-0.039018046 0.19615707 0.18254901
-0.039018046 0.19615707 0.17470588
-0.039018046 0.19615707 0.16686274
-0.039018046 0.19615707 0.1590196
-0.039018046 0.19615707 0.15117647
-0.039018046 0.19615707 0.14333335
-0.039018046 0.19615707 0.13549021
-0.039018046 0.19615707 0.12764707
-0.039018046 0.19615707 0.11980393
-0.039018046 0.19615707 0.11196079
-0.039018046 0.19615707 0.10411765
-0.039018046 0.19615707 0.09627451
-0.039018046 0.19615707 0.088431373
-0.039018046 0.19615707 0.080588236
-0.039018046 0.19615707 0.0727451
-0.039018046 0.19615707 0.064901963
-0.039018046 0.19615707 0.057058826
-0.039018046 0.19615707 0.049215689
-0.039018046 0.19615707 0.041372553
-0.039018046 0.19615707 0.033529416
-0.039018046 0.19615707 0.025686279
-0.039018046 0.19615707 0.017843127
0.0039018006 0.01961571 0.41000003
-5.3644178e-09 0.020000005 0.41000003
0.0076536657 0.018477594 0.41000003
0.011111403 0.016629398 0.41000003
0.014142132 0.014142132 0.41000003
0.016629387 0.011111403 0.41000003
0.018477583 0.0076536718 0.41000003
0.019615699 0.0039018064 0.41000003
0.019999994 -8.7422763e-10 0.41000003
0.019615699 -0.0039018064 0.41000003
0.018477583 -0.0076536657 0.41000003
0.016629387 -0.011111403 0.41000003
0.014142132 -0.014142132 0.41000003
0.011111403 -0.016629398 0.41000003
0.0076536657 -0.018477594 0.41000003
0.0039018006 -0.01961571 0.41000003
-7.1128738e-09 -0.020000005 0.41000003
-0.0039018095 -0.01961571 0.41000003
-0.0076536718 -0.018477594 0.41000003
-0.011111415 -0.016629387 0.41000003
-0.014142144 -0.014142132 0.41000003
-0.016629398 -0.011111415 0.41000003
-0.018477594 -0.0076536718 0.41000003
-0.01961571 -0.0039018064 0.41000003
-0.020000005 2.3849758e-10 0.41000003
-0.01961571 0.0039018095 0.41000003
-0.018477594 0.0076536718 0.41000003
-0.016629398 0.011111403 0.41000003
-0.014142144 0.014142132 0.41000003
-0.011111415 0.016629398 0.41000003
-0.0076536718 0.018477594 0.41000003
-0.0039018095 0.01961571 0.41000003
0.13563594 0.13563594 0.41
0.12985052 0.12985052 0.41
0.1240651 0.1240651 0.41
0.11827969 0.11827969 0.41
0.11249427 0.11249427 0.41
0.10670885 0.10670885 0.41
0.10092343 0.10092343 0.41
0.095138013 0.095138013 0.41
0.0893526 0.0893526 0.41
0.08356718 0.08356718 0.41
0.077781759 0.077781759 0.41
0.071996339 0.071996339 0.41
0.066210918 0.066210918 0.41
0.060425498 0.060425498 0.41
0.054640081 0.054640081 0.41
0.04885466 0.04885466 0.41
0.04306924 0.04306924 0.41
0.037283819 0.037283819 0.41
0.031498399 0.031498399 0.41
0.025712976 0.025712976 0.41
0.019927554 0.019927554 0.41
0.02343232 0.015656978 0.41000003
0.030235255 0.020202553 0.41000003
0.037038188 0.02474813 0.41000003
0.043841124 0.029293705 0.41000003
0.050644059 0.033839282 0.41000003
0.057446994 0.038384855 0.41000003
0.064249925 0.042930432 0.41000003
0.071052864 0.047476005 0.41000003
0.077855796 0.052021582 0.41000003
0.084658735 0.056567159 0.41000003
0.091461666 0.061112732 0.41000003
0.098264597 0.065658309 0.41000003
0.10506753 0.070203885 0.41000003
0.11187046 0.074749462 0.41000003
0.11867338 0.079295032 0.41000003
0.12547632 0.083840609 0.41000003
0.13227926 0.088386185 0.41000003
0.13908218 0.092931762 0.41000003
0.14588511 0.097477332 0.41000003
0.15268806 0.1020229 0.41000003
0.15949099 0.10656848 0.41
0.10656847 -0.159491 0.41
0.1020229 -0.15268807 0.41
0.097477324 -0.14588515 0.41
0.092931747 -0.13908222 0.41
0.088386171 -0.13227928 0.41
0.083840601 -0.12547635 0.41
0.079295024 -0.11867341 0.41
0.074749447 -0.11187048 0.41
0.070203871 -0.10506754 0.41
0.065658294 -0.098264605 0.41
0.061112721 -0.091461673 0.41
0.056567144 -0.084658735 0.41
0.052021571 -0.077855803 0.41
0.047475994 -0.071052872 0.41
0.04293042 -0.064249933 0.41
0.038384844 -0.057446998 0.41
0.03383927 -0.050644066 0.41
0.029293699 -0.043841131 0.41
0.024748124 -0.037038196 0.41
0.020202551 -0.030235261 0.41
0.015656976 -0.023432329 0.41
0.010784713 -0.026036609 0.41000003
0.01391576 -0.033595622 0.41000003
0.017046807 -0.041154634 0.41000003
0.020177854 -0.048713651 0.41000003
0.023308901 -0.056272663 0.41000003
0.026439948 -0.06383168 0.41000003
0.029570995 -0.071390688 0.41000003
0.03270204 -0.078949705 0.41000003
0.035833087 -0.086508714 0.41000003
0.038964134 -0.09406773 0.41000003
0.042095181 -0.10162675 0.41000003
0.045226227 -0.10918576 0.41000003
0.048357274 -0.11674477 0.41000003
0.051488321 -0.12430378 0.41000003
0.054619372 -0.1318628 0.41000003
0.057750415 -0.13942181 0.41000003
0.060881462 -0.14698082 0.41000003
0.064012513 -0.15453984 0.41000003
0.067143559 -0.16209885 0.41000003
0.070274606 -0.16965787 0.41000003
0.073405646 -0.17721689 0.41
-0.17721689 -0.073405668 0.41
-0.16965787 -0.070274614 0.41
-0.16209887 -0.067143567 0.41
-0.15453985 -0.06401252 0.41
-0.14698084 -0.060881473 0.41
-0.13942182 -0.057750423 0.41
-0.1318628 -0.054619372 0.41
-0.1243038 -0.051488329 0.41
-0.11674478 -0.048357282 0.41
-0.10918577 -0.045226235 0.41
-0.10162675 -0.042095188 0.41
-0.094067745 -0.038964141 0.41
-0.086508729 -0.035833094 0.41
-0.078949712 -0.032702047 0.41
-0.071390703 -0.029571 0.41
-0.063831687 -0.026439954 0.41
-0.056272674 -0.023308907 0.41
-0.048713658 -0.02017786 0.41
-0.041154642 -0.017046813 0.41
-0.033595625 -0.013915765 0.41
-0.026036609 -0.010784718 0.41
-0.027640317 -0.0054980009 0.41000003
-0.035664923 -0.0070941946 0.41000003
-0.04368953 -0.0086903889 0.41000003
-0.051714133 -0.010286584 0.41000003
-0.059738744 -0.011882777 0.41000003
-0.067763351 -0.013478972 0.41000003
-0.075787961 -0.015075167 0.41000003
-0.083812572 -0.016671361 0.41000003
-0.091837183 -0.018267555 0.41000003
-0.099861786 -0.019863751 0.41000003
-0.10788639 -0.021459945 0.41000003
-0.115911 -0.02305614 0.41000003
-0.1239356 -0.024652332 0.41000003
-0.13196021 -0.026248528 0.41000003
-0.13998483 -0.027844721 0.41000003
-0.14800943 -0.029440915 0.41000003
-0.15603404 -0.031037111 0.41000003
-0.16405864 -0.032633305 0.41000003
-0.17208324 -0.034229498 0.41000003
-0.18010785 -0.035825692 0.41000003
-0.18813245 -0.037421882 0.41
-2.438372e-10 0.19181818 0.41
-4.8767435e-10 0.18363635 0.41
-7.3151157e-10 0.17545454 0.41
-9.7534869e-10 0.16727272 0.41
-1.219186e-09 0.15909089 0.41
-1.4630231e-09 0.15090907 0.41
-1.7068603e-09 0.14272726 0.41
-1.9506974e-09 0.13454543 0.41
-2.1945346e-09 0.12636362 0.41
-2.4383717e-09 0.1181818 0.41
-2.6822089e-09 0.10999999 0.41
-2.9260459e-09 0.10181817 0.41
-3.1698832e-09 0.093636356 0.41
-3.4137206e-09 0.085454538 0.41
-3.6575578e-09 0.077272721 0.41
-3.9013952e-09 0.069090903 0.41
-4.1452326e-09 0.060909089 0.41
-4.3890696e-09 0.052727271 0.41
-4.6329065e-09 0.044545453 0.41
-4.8767439e-09 0.036363639 0.41
-5.1205808e-09 0.028181821 0.41
0.0054979944 0.027640317 0.41000003
0.0070941881 0.035664923 0.41000003
0.0086903824 0.04368953 0.41000003
0.010286576 0.051714133 0.41000003
0.01188277 0.059738744 0.41000003
0.013478964 0.067763351 0.41000003
0.015075156 0.075787961 0.41000003
0.01667135 0.083812572 0.41000003
0.018267546 0.091837183 0.41000003
0.01986374 0.099861786 0.41000003
0.021459935 0.10788639 0.41000003
0.023056129 0.115911 0.41000003
0.024652323 0.1239356 0.41000003
0.026248515 0.13196021 0.41000003
0.02784471 0.13998483 0.41000003
0.029440904 0.14800943 0.41000003
0.031037098 0.15603404 0.41000003
0.032633293 0.16405864 0.41000003
0.034229487 0.17208324 0.41000003
0.035825681 0.18010785 0.41000003
0.037421871 0.18813245 0.41
-0.037421856 0.18813245 0.41
-0.035825666 0.18010785 0.41
-0.034229472 0.17208324 0.41
-0.032633282 0.16405863 0.41
-0.03103709 0.15603402 0.41
-0.029440898 0.1480094 0.41
-0.027844703 0.1399848 0.41
-0.026248509 0.1319602 0.41
-0.024652315 0.12393558 0.41
-0.023056123 0.11591097 0.41
-0.02145993 0.10788637 0.41
-0.019863738 0.099861763 0.41
-0.018267544 0.09183716 0.41
-0.01667135 0.083812557 0.41
-0.015075157 0.075787954 0.41
-0.013478965 0.067763343 0.41
-0.011882772 0.059738737 0.41
-0.01028658 0.051714133 0.41
-0.008690387 0.04368953 0.41
-0.0070941942 0.035664923 0.41
-0.0054980018 0.027640317 0.41
0.18813245 -0.037421871 0.41
0.18010783 -0.035825677 0.41
0.17208323 -0.034229483 0.41
0.16405861 -0.032633286 0.41
0.15603401 -0.031037092 0.41
0.1480094 -0.029440898 0.41
0.13998479 -0.027844703 0.41
0.13196018 -0.026248509 0.41
0.12393557 -0.024652315 0.41
0.11591096 -0.023056123 0.41
0.10788635 -0.02145993 0.41
0.099861749 -0.019863738 0.41
0.091837145 -0.018267544 0.41
0.083812542 -0.01667135 0.41
0.075787939 -0.015075157 0.41
0.067763329 -0.013478965 0.41
0.059738725 -0.011882772 0.41
0.051714122 -0.010286579 0.41
0.043689515 -0.0086903861 0.41
0.035664912 -0.0070941928 0.41
0.027640304 -0.0054979995 0.41
0.026036596 -0.010784712 0.41000003
0.03359561 -0.013915758 0.41000003
0.041154627 -0.017046804 0.41000003
0.048713643 -0.02017785 0.41000003
0.056272656 -0.023308896 0.41000003
0.063831672 -0.026439941 0.41000003
0.071390681 -0.029570987 0.41000003
0.078949697 -0.032702036 0.41000003
0.086508714 -0.035833083 0.41000003
0.094067723 -0.03896413 0.41000003
0.10162675 -0.042095177 0.41000003
0.10918576 -0.045226224 0.41000003
0.11674477 -0.048357271 0.41000003
0.12430378 -0.051488318 0.41000003
0.1318628 -0.054619361 0.41000003
0.13942181 -0.057750404 0.41000003
0.14698082 -0.060881447 0.41000003
0.15453984 -0.06401249 0.41000003
0.16209887 -0.067143537 0.41000003
0.16965787 -0.070274584 0.41000003
0.17721689 -0.073405638 0.41
-0.073405646 -0.17721689 0.41
-0.070274599 -0.16965787 0.41
-0.067143552 -0.16209887 0.41
-0.064012513 -0.15453985 0.41
-0.060881466 -0.14698084 0.41
-0.057750415 -0.13942182 0.41
-0.054619372 -0.1318628 0.41
-0.051488329 -0.1243038 0.41
-0.048357282 -0.11674478 0.41
-0.045226235 -0.10918577 0.41
-0.042095188 -0.10162675 0.41
-0.038964141 -0.094067745 0.41
-0.035833094 -0.086508729 0.41
-0.032702047 -0.078949712 0.41
-0.029571 -0.071390703 0.41
-0.026439954 -0.063831687 0.41
-0.023308907 -0.056272674 0.41
-0.02017786 -0.048713658 0.41
-0.017046813 -0.041154642 0.41
-0.013915765 -0.033595625 0.41
-0.010784718 -0.026036609 0.41
-0.015656991 -0.02343232 0.41000003
-0.020202566 -0.030235251 0.41000003
-0.024748141 -0.037038185 0.41000003
-0.029293716 -0.04384112 0.41000003
-0.033839293 -0.050644051 0.41000003
-0.038384866 -0.057446986 0.41000003
-0.042930443 -0.064249925 0.41000003
-0.04747602 -0.071052857 0.41000003
-0.052021593 -0.077855788 0.41000003
-0.05656717 -0.084658727 0.41000003
-0.061112743 -0.091461658 0.41000003
-0.065658323 -0.098264597 0.41000003
-0.070203893 -0.10506753 0.41000003
-0.07474947 -0.11187046 0.41000003
-0.079295047 -0.11867338 0.41000003
-0.083840623 -0.12547632 0.41000003
-0.0883862 -0.13227925 0.41000003
-0.09293177 -0.13908218 0.41000003
-0.097477339 -0.14588511 0.41000003
-0.10202291 -0.15268804 0.41000003
-0.10656848 -0.15949097 0.41
-0.15949102 0.10656845 0.41
-0.15268807 0.10202288 0.41
-0.14588515 0.097477302 0.41
-0.13908222 0.092931725 0.41
-0.13227928 0.088386148 0.41
-0.12547635 0.083840571 0.41
-0.11867341 0.079295002 0.41
-0.11187048 0.074749425 0.41
-0.10506754 0.070203848 0.41
-0.098264605 0.065658271 0.41
-0.091461673 0.061112702 0.41
-0.084658735 0.056567129 0.41
-0.077855803 0.052021552 0.41
-0.071052872 0.047475979 0.41
-0.064249933 0.042930406 0.41
-0.057446998 0.038384836 0.41
-0.050644066 0.033839263 0.41
-0.043841131 0.02929369 0.41
-0.037038196 0.024748117 0.41
-0.030235261 0.020202545 0.41
-0.023432329 0.015656974 0.41
-0.019927565 0.01992755 0.41000003
-0.025712986 0.025712967 0.41000003
-0.031498406 0.031498384 0.41000003
-0.037283827 0.037283804 0.41000003
-0.043069247 0.043069221 0.41000003
-0.048854668 0.048854638 0.41000003
-0.054640085 0.054640055 0.41000003
-0.060425501 0.060425472 0.41000003
-0.066210918 0.066210888 0.41000003
-0.071996339 0.071996309 0.41000003
-0.077781759 0.077781729 0.41000003
-0.08356718 0.083567142 0.41000003
-0.0893526 0.089352563 0.41000003
-0.095138013 0.095137976 0.41000003
-0.10092343 0.1009234 0.41000003
-0.10670885 0.10670882 0.41000003
-0.11249427 0.11249423 0.41000003
-0.11827969 0.11827965 0.41000003
-0.12406512 0.12406506 0.41000003
-0.12985054 0.12985049 0.41000003
-0.13563596 0.1356359 0.41
0.026036596 0.010784718 0.41000003
0.03359561 0.013915764 0.41000003
0.041154623 0.017046809 0.41000003
0.048713636 0.020177856 0.41000003
0.056272652 0.023308901 0.41000003
0.063831665 0.026439948 0.41000003
0.071390681 0.029570995 0.41000003
0.07894969 0.03270204 0.41000003
0.086508706 0.035833087 0.41000003
0.094067715 0.038964134 0.41000003
0.10162673 0.042095181 0.41000003
0.10918575 0.045226227 0.41000003
0.11674476 0.048357274 0.41000003
0.12430377 0.051488321 0.41000003
0.13186279 0.054619368 0.41000003
0.13942181 0.057750411 0.41000003
0.14698081 0.060881454 0.41000003
0.15453982 0.064012498 0.41000003
0.16209884 0.067143552 0.41000003
0.16965787 0.070274591 0.41000003
0.17721689 0.073405638 0.41
0.0054979944 -0.027640317 0.41000003
0.0070941881 -0.035664923 0.41000003
0.0086903824 -0.04368953 0.41000003
0.010286576 -0.051714133 0.41000003
0.01188277 -0.059738744 0.41000003
0.013478964 -0.067763351 0.41000003
0.015075156 -0.075787961 0.41000003
0.01667135 -0.083812572 0.41000003
0.018267546 -0.091837183 0.41000003
0.019863738 -0.099861793 0.41000003
0.021459932 -0.1078864 0.41000003
0.023056125 -0.11591101 0.41000003
0.024652319 -0.12393562 0.41000003
0.026248513 -0.13196023 0.41000003
0.027844707 -0.13998483 0.41000003
0.0294409 -0.14800945 0.41000003
0.031037096 -0.15603404 0.41000003
0.03263329 -0.16405866 0.41000003
0.034229483 -0.17208326 0.41000003
0.035825677 -0.18010786 0.41000003
0.037421871 -0.18813245 0.41
-0.028181825 3.3606479e-10 0.41000003
-0.036363643 4.3363199e-10 0.41000003
-0.04454546 5.311992e-10 0.41000003
-0.052727278 6.2876637e-10 0.41000003
-0.060909092 7.263336e-10 0.41000003
-0.06909091 8.2390078e-10 0.41000003
-0.077272728 9.2146796e-10 0.41000003
-0.085454546 1.0190352e-09 0.41000003
-0.093636356 1.1166024e-09 0.41000003
-0.10181818 1.2141695e-09 0.41000003
-0.11000001 1.3117368e-09 0.41000003
-0.11818182 1.409304e-09 0.41000003
-0.12636365 1.5068713e-09 0.41000003
-0.13454548 1.6044386e-09 0.41000003
-0.14272729 1.7020056e-09 0.41000003
-0.15090911 1.7995729e-09 0.41000003
-0.15909092 1.8971402e-09 0.41000003
-0.16727273 1.9947073e-09 0.41000003
-0.17545454 2.0922746e-09 0.41000003
-0.18363637 2.1898419e-09 0.41000003
-0.19181819 2.2874092e-09 0.41
0.010784713 0.026036609 0.41000003
0.01391576 0.033595622 0.41000003
0.017046807 0.041154634 0.41000003
0.020177854 0.048713651 0.41000003
0.023308901 0.056272663 0.41000003
0.026439948 0.06383168 0.41000003
0.029570995 0.071390688 0.41000003
0.03270204 0.078949705 0.41000003
0.035833087 0.086508714 0.41000003
0.038964134 0.09406773 0.41000003
0.042095181 0.10162675 0.41000003
0.045226227 0.10918576 0.41000003
0.048357274 0.11674477 0.41000003
0.051488321 0.12430378 0.41000003
0.054619368 0.1318628 0.41000003
0.057750411 0.13942181 0.41000003
0.060881462 0.14698082 0.41000003
0.064012505 0.15453984 0.41000003
0.067143552 0.16209885 0.41000003
0.070274599 0.16965787 0.41000003
0.073405646 0.17721689 0.41
0.02343232 -0.015656976 0.41000003
0.030235255 -0.020202551 0.41000003
0.037038188 -0.024748124 0.41000003
0.043841124 -0.029293699 0.41000003
0.050644059 -0.033839274 0.41000003
0.057446994 -0.038384851 0.41000003
0.064249925 -0.042930424 0.41000003
0.071052864 -0.047476001 0.41000003
0.077855796 -0.052021574 0.41000003
0.084658735 -0.056567151 0.41000003
0.091461666 -0.061112728 0.41000003
0.098264597 -0.065658301 0.41000003
0.10506753 -0.070203878 0.41000003
0.11187046 -0.074749455 0.41000003
0.1186734 -0.079295032 0.41000003
0.12547633 -0.083840601 0.41000003
0.13227926 -0.088386178 0.41000003
0.13908219 -0.092931747 0.41000003
0.14588514 -0.097477317 0.41000003
0.15268807 -0.10202289 0.41000003
0.15949099 -0.10656846 0.41
-0.019927561 -0.019927552 0.41000003
-0.02571298 -0.025712973 0.41000003
-0.031498399 -0.031498395 0.41000003
-0.037283815 -0.037283815 0.41000003
-0.043069232 -0.043069236 0.41000003
-0.048854649 -0.048854657 0.41000003
-0.054640066 -0.054640073 0.41000003
-0.060425486 -0.06042549 0.41000003
-0.066210903 -0.066210911 0.41000003
-0.071996324 -0.071996324 0.41000003
-0.077781737 -0.077781744 0.41000003
-0.083567157 -0.083567165 0.41000003
-0.08935257 -0.089352585 0.41000003
-0.095137991 -0.095138006 0.41000003
-0.10092341 -0.10092342 0.41000003
-0.10670882 -0.10670884 0.41000003
-0.11249425 -0.11249425 0.41000003
-0.11827966 -0.11827967 0.41000003
-0.12406508 -0.12406509 0.41000003
-0.12985049 -0.12985052 0.41000003
-0.13563593 -0.13563596 0.41
-0.015656991 0.023432331 0.41000003
-0.020202566 0.030235264 0.41000003
-0.024748141 0.037038196 0.41000003
-0.029293716 0.043841131 0.41000003
-0.033839293 0.050644066 0.41000003
-0.038384866 0.057446998 0.41000003
-0.042930443 0.064249933 0.41000003
-0.04747602 0.071052872 0.41000003
-0.052021593 0.077855803 0.41000003
-0.05656717 0.084658735 0.41000003
-0.061112743 0.091461673 0.41000003
