# .PCD v0.7 - Point Cloud Data file format
VERSION 0.7
FIELDS x y z
SIZE 4 4 4
TYPE F F F
COUNT 1 1 1
WIDTH 1493
HEIGHT 1
VIEWPOINT 0 0 0 1 0 0 0
POINTS 1493
DATA ascii
1 0.2 0.064901948
1 0.2 0.072745085
1 0.2 0.080588222
1 0.2 0.088431358
1 0.2 0.096274495
1 0.2 0.10411763
1 0.2 0.11196077
1 0.2 0.11980391
1 0.2 0.12764704
1 0.2 0.13549018
1 0.2 0.14333332
1 0.2 0.15117645
1 0.2 0.15901959
1 0.2 0.16686273
1 0.2 0.17470586
1 0.2 0.182549
1 0.2 0.19039214
1 0.2 0.19823527
1 0.2 0.20607841
1 0.2 0.21392155
1 0.2 0.22176468
1 0.2 0.22960784
1 0.2 0.23745097
1 0.2 0.24529411
1 0.2 0.25313723
1 0.2 0.26098037
1 0.2 0.2688235
1 0.2 0.27666664
1 0.2 0.28450978
1 0.2 0.29235291
1 0.2 0.30019605
1 0.2 0.30803919
1 0.2 0.31588233
1 0.2 0.32372546
1 0.2 0.3315686
1 0.2 0.33941174
1 0.2 0.34725487
1 0.2 0.35509801
1 0.2 0.36294115
1 0.2 0.37078428
1 0.2 0.37862742
1 0.2 0.38647056
1 0.2 0.39431369
1 0.2 0.40215686
1.039018 0.19615705 0.40215686
1.039018 0.19615705 0.39431372
1.039018 0.19615705 0.38647059
1.039018 0.19615705 0.37862745
1.039018 0.19615705 0.37078431
1.039018 0.19615705 0.36294118
1.039018 0.19615705 0.35509804
1.039018 0.19615705 0.3472549
1.039018 0.19615705 0.33941177
1.039018 0.19615705 0.33156863
1.039018 0.19615705 0.32372549
1.039018 0.19615705 0.31588235
1.039018 0.19615705 0.30803922
1.039018 0.19615705 0.30019608
1.039018 0.19615705 0.29235294
1.039018 0.19615705 0.28450981
1.039018 0.19615705 0.27666667
1.039018 0.19615705 0.26882353
1.039018 0.19615705 0.2609804
1.039018 0.19615705 0.25313726
1.039018 0.19615705 0.24529412
1.039018 0.19615705 0.23745099
1.039018 0.19615705 0.22960785
1.039018 0.19615705 0.22176471
1.039018 0.19615705 0.21392158
1.039018 0.19615705 0.20607844
1.039018 0.19615705 0.1982353
1.039018 0.19615705 0.19039215
1.039018 0.19615705 0.18254901
1.039018 0.19615705 0.17470588
1.039018 0.19615705 0.16686274
1.039018 0.19615705 0.1590196
1.039018 0.19615705 0.15117647
1.039018 0.19615705 0.14333335
1.039018 0.19615705 0.13549021
1.039018 0.19615705 0.12764707
1.039018 0.19615705 0.11980393
1.039018 0.19615705 0.11196079
1.039018 0.19615705 0.10411765
1.039018 0.19615705 0.09627451
1.039018 0.19615705 0.088431373
1.039018 0.19615705 0.080588236
1.039018 0.19615705 0.0727451
1.039018 0.19615705 0.064901963
1.039018 0.19615705 0.057058826
1.039018 0.19615705 0.049215689
1.039018 0.19615705 0.041372553
1.039018 0.19615705 0.033529416
1.039018 0.19615705 0.025686279
1.039018 0.19615705 0.017843127
1.0765367 0.1847759 0.40215686
1.0765367 0.1847759 0.39431372
1.0765367 0.1847759 0.38647059
1.0765367 0.1847759 0.37862745
1.0765367 0.1847759 0.37078431
1.0765367 0.1847759 0.36294118
1.0765367 0.1847759 0.35509804
1.0765367 0.1847759 0.3472549
1.0765367 0.1847759 0.33941177
1.0765367 0.1847759 0.33156863
1.0765367 0.1847759 0.32372549
1.0765367 0.1847759 0.31588235
1.0765367 0.1847759 0.30803922
1.0765367 0.1847759 0.30019608
1.0765367 0.1847759 0.29235294
1.0765367 0.1847759 0.28450981
1.0765367 0.1847759 0.27666667
1.0765367 0.1847759 0.26882353
1.0765367 0.1847759 0.2609804
1.0765367 0.1847759 0.25313726
1.0765367 0.1847759 0.24529412
1.0765367 0.1847759 0.23745099
1.0765367 0.1847759 0.22960785
1.0765367 0.1847759 0.22176471
1.0765367 0.1847759 0.21392158
1.0765367 0.1847759 0.20607844
1.0765367 0.1847759 0.1982353
1.0765367 0.1847759 0.19039215
1.0765367 0.1847759 0.18254901
1.0765367 0.1847759 0.17470588
1.0765367 0.1847759 0.16686274
1.0765367 0.1847759 0.1590196
1.0765367 0.1847759 0.15117647
1.0765367 0.1847759 0.14333335
1.0765367 0.1847759 0.13549021
1.0765367 0.1847759 0.12764707
1.0765367 0.1847759 0.11980393
1.0765367 0.1847759 0.11196079
1.0765367 0.1847759 0.10411765
1.0765367 0.1847759 0.09627451
1.0765367 0.1847759 0.088431373
1.0765367 0.1847759 0.080588236
1.0765367 0.1847759 0.0727451
1.0765367 0.1847759 0.064901963
1.0765367 0.1847759 0.057058826
1.0765367 0.1847759 0.049215689
1.0765367 0.1847759 0.041372553
1.0765367 0.1847759 0.033529416
1.0765367 0.1847759 0.025686279
1.0765367 0.1847759 0.017843127
1.111114 0.16629392 0.40215686
1.111114 0.16629392 0.39431372
1.111114 0.16629392 0.38647059
1.111114 0.16629392 0.37862745
1.111114 0.16629392 0.37078431
1.111114 0.16629392 0.36294118
1.111114 0.16629392 0.35509804
1.111114 0.16629392 0.3472549
1.111114 0.16629392 0.33941177
1.111114 0.16629392 0.33156863
1.111114 0.16629392 0.32372549
1.111114 0.16629392 0.31588235
1.111114 0.16629392 0.30803922
1.111114 0.16629392 0.30019608
1.111114 0.16629392 0.29235294
1.111114 0.16629392 0.28450981
1.111114 0.16629392 0.27666667
1.111114 0.16629392 0.26882353
1.111114 0.16629392 0.2609804
1.111114 0.16629392 0.25313726
1.111114 0.16629392 0.24529412
1.111114 0.16629392 0.23745099
1.111114 0.16629392 0.22960785
1.111114 0.16629392 0.22176471
1.111114 0.16629392 0.21392158
1.111114 0.16629392 0.20607844
1.111114 0.16629392 0.1982353
1.111114 0.16629392 0.19039215
1.111114 0.16629392 0.18254901
1.111114 0.16629392 0.17470588
1.111114 0.16629392 0.16686274
1.111114 0.16629392 0.1590196
1.111114 0.16629392 0.15117647
1.111114 0.16629392 0.14333335
1.111114 0.16629392 0.13549021
1.111114 0.16629392 0.12764707
1.111114 0.16629392 0.11980393
1.111114 0.16629392 0.11196079
1.111114 0.16629392 0.10411765
1.111114 0.16629392 0.09627451
1.111114 0.16629392 0.088431373
1.111114 0.16629392 0.080588236
1.111114 0.16629392 0.0727451
1.111114 0.16629392 0.064901963
1.111114 0.16629392 0.057058826
1.111114 0.16629392 0.049215689
1.111114 0.16629392 0.041372553
1.111114 0.16629392 0.033529416
1.111114 0.16629392 0.025686279
1.111114 0.16629392 0.017843127
1.1414213 0.14142136 0.40215686
1.1414213 0.14142136 0.39431372
1.1414213 0.14142136 0.38647059
1.1414213 0.14142136 0.37862745
1.1414213 0.14142136 0.37078431
1.1414213 0.14142136 0.36294118
1.1414213 0.14142136 0.35509804
1.1414213 0.14142136 0.3472549
1.1414213 0.14142136 0.33941177
1.1414213 0.14142136 0.33156863
1.1414213 0.14142136 0.32372549
1.1414213 0.14142136 0.31588235
1.1414213 0.14142136 0.30803922
1.1414213 0.14142136 0.30019608
1.1414213 0.14142136 0.29235294
1.1414213 0.14142136 0.28450981
1.1414213 0.14142136 0.27666667
1.1414213 0.14142136 0.26882353
1.1414213 0.14142136 0.2609804
1.1414213 0.14142136 0.25313726
1.1414213 0.14142136 0.24529412
1.1414213 0.14142136 0.23745099
1.1414213 0.14142136 0.22960785
1.1414213 0.14142136 0.22176471
1.1414213 0.14142136 0.21392158
1.1414213 0.14142136 0.20607844
1.1414213 0.14142136 0.1982353
1.1414213 0.14142136 0.19039215
1.1414213 0.14142136 0.18254901
1.1414213 0.14142136 0.17470588
1.1414213 0.14142136 0.16686274
1.1414213 0.14142136 0.1590196
1.1414213 0.14142136 0.15117647
1.1414213 0.14142136 0.14333335
1.1414213 0.14142136 0.13549021
1.1414213 0.14142136 0.12764707
1.1414213 0.14142136 0.11980393
1.1414213 0.14142136 0.11196079
1.1414213 0.14142136 0.10411765
1.1414213 0.14142136 0.09627451
1.1414213 0.14142136 0.088431373
1.1414213 0.14142136 0.080588236
1.1414213 0.14142136 0.0727451
1.1414213 0.14142136 0.064901963
1.1414213 0.14142136 0.057058826
1.1414213 0.14142136 0.049215689
1.1414213 0.14142136 0.041372553
1.1414213 0.14142136 0.033529416
1.1414213 0.14142136 0.025686279
1.1414213 0.14142136 0.017843127
1.1662939 0.11111405 0.40215686
1.1662939 0.11111405 0.39431372
1.1662939 0.11111405 0.38647059
1.1662939 0.11111405 0.37862745
1.1662939 0.11111405 0.37078431
1.1662939 0.11111405 0.36294118
1.1662939 0.11111405 0.35509804
1.1662939 0.11111405 0.3472549
1.1662939 0.11111405 0.33941177
1.1662939 0.11111405 0.33156863
1.1662939 0.11111405 0.32372549
1.1662939 0.11111405 0.31588235
1.1662939 0.11111405 0.30803922
1.1662939 0.11111405 0.30019608
1.1662939 0.11111405 0.29235294
1.1662939 0.11111405 0.28450981
1.1662939 0.11111405 0.27666667
1.1662939 0.11111405 0.26882353
1.1662939 0.11111405 0.2609804
1.1662939 0.11111405 0.25313726
1.1662939 0.11111405 0.24529412
1.1662939 0.11111405 0.23745099
1.1662939 0.11111405 0.22960785
1.1662939 0.11111405 0.22176471
1.1662939 0.11111405 0.21392158
1.1662939 0.11111405 0.20607844
1.1662939 0.11111405 0.1982353
1.1662939 0.11111405 0.19039215
1.1662939 0.11111405 0.18254901
1.1662939 0.11111405 0.17470588
1.1662939 0.11111405 0.16686274
1.1662939 0.11111405 0.1590196
1.1662939 0.11111405 0.15117647
1.1662939 0.11111405 0.14333335
1.1662939 0.11111405 0.13549021
1.1662939 0.11111405 0.12764707
1.1662939 0.11111405 0.11980393
1.1662939 0.11111405 0.11196079
1.1662939 0.11111405 0.10411765
1.1662939 0.11111405 0.09627451
1.1662939 0.11111405 0.088431373
1.1662939 0.11111405 0.080588236
1.1662939 0.11111405 0.0727451
1.1662939 0.11111405 0.064901963
1.1662939 0.11111405 0.057058826
1.1662939 0.11111405 0.049215689
1.1662939 0.11111405 0.041372553
1.1662939 0.11111405 0.033529416
1.1662939 0.11111405 0.025686279
1.1662939 0.11111405 0.017843127
1.1847759 0.076536685 0.40215686
1.1847759 0.076536685 0.39431372
1.1847759 0.076536685 0.38647059
1.1847759 0.076536685 0.37862745
1.1847759 0.076536685 0.37078431
1.1847759 0.076536685 0.36294118
1.1847759 0.076536685 0.35509804
1.1847759 0.076536685 0.3472549
1.1847759 0.076536685 0.33941177
1.1847759 0.076536685 0.33156863
1.1847759 0.076536685 0.32372549
1.1847759 0.076536685 0.31588235
1.1847759 0.076536685 0.30803922
1.1847759 0.076536685 0.30019608
1.1847759 0.076536685 0.29235294
1.1847759 0.076536685 0.28450981
1.1847759 0.076536685 0.27666667
1.1847759 0.076536685 0.26882353
1.1847759 0.076536685 0.2609804
1.1847759 0.076536685 0.25313726
1.1847759 0.076536685 0.24529412
1.1847759 0.076536685 0.23745099
1.1847759 0.076536685 0.22960785
1.1847759 0.076536685 0.22176471
1.1847759 0.076536685 0.21392158
1.1847759 0.076536685 0.20607844
1.1847759 0.076536685 0.1982353
1.1847759 0.076536685 0.19039215
1.1847759 0.076536685 0.18254901
1.1847759 0.076536685 0.17470588
1.1847759 0.076536685 0.16686274
1.1847759 0.076536685 0.1590196
1.1847759 0.076536685 0.15117647
1.1847759 0.076536685 0.14333335
1.1847759 0.076536685 0.13549021
1.1847759 0.076536685 0.12764707
1.1847759 0.076536685 0.11980393
1.1847759 0.076536685 0.11196079
1.1847759 0.076536685 0.10411765
1.1847759 0.076536685 0.09627451
1.1847759 0.076536685 0.088431373
1.1847759 0.076536685 0.080588236
1.1847759 0.076536685 0.0727451
1.1847759 0.076536685 0.064901963
1.1847759 0.076536685 0.057058826
1.1847759 0.076536685 0.049215689
1.1847759 0.076536685 0.041372553
1.1847759 0.076536685 0.033529416
1.1847759 0.076536685 0.025686279
1.1847759 0.076536685 0.017843127
1.1961571 0.039018072 0.40215686
1.1961571 0.039018072 0.39431372
1.1961571 0.039018072 0.38647059
1.1961571 0.039018072 0.37862745
1.1961571 0.039018072 0.37078431
1.1961571 0.039018072 0.36294118
1.1961571 0.039018072 0.35509804
1.1961571 0.039018072 0.3472549
1.1961571 0.039018072 0.33941177
1.1961571 0.039018072 0.33156863
1.1961571 0.039018072 0.32372549
1.1961571 0.039018072 0.31588235
1.1961571 0.039018072 0.30803922
1.1961571 0.039018072 0.30019608
1.1961571 0.039018072 0.29235294
1.1961571 0.039018072 0.28450981
1.1961571 0.039018072 0.27666667
1.1961571 0.039018072 0.26882353
1.1961571 0.039018072 0.2609804
1.1961571 0.039018072 0.25313726
1.1961571 0.039018072 0.24529412
1.1961571 0.039018072 0.23745099
1.1961571 0.039018072 0.22960785
1.1961571 0.039018072 0.22176471
1.1961571 0.039018072 0.21392158
1.1961571 0.039018072 0.20607844
1.1961571 0.039018072 0.1982353
1.1961571 0.039018072 0.19039215
1.1961571 0.039018072 0.18254901
1.1961571 0.039018072 0.17470588
1.1961571 0.039018072 0.16686274
1.1961571 0.039018072 0.1590196
1.1961571 0.039018072 0.15117647
1.1961571 0.039018072 0.14333335
1.1961571 0.039018072 0.13549021
1.1961571 0.039018072 0.12764707
1.1961571 0.039018072 0.11980393
1.1961571 0.039018072 0.11196079
1.1961571 0.039018072 0.10411765
1.1961571 0.039018072 0.09627451
1.1961571 0.039018072 0.088431373
1.1961571 0.039018072 0.080588236
1.1961571 0.039018072 0.0727451
1.1961571 0.039018072 0.064901963
1.1961571 0.039018072 0.057058826
1.1961571 0.039018072 0.049215689
1.1961571 0.039018072 0.041372553
1.1961571 0.039018072 0.033529416
1.1961571 0.039018072 0.025686279
1.1961571 0.039018072 0.017843127
1.2 -8.742278e-09 0.40215686
1.2 -8.742278e-09 0.39431372
1.2 -8.742278e-09 0.38647059
1.2 -8.742278e-09 0.37862745
1.2 -8.742278e-09 0.37078431
1.2 -8.742278e-09 0.36294118
1.2 -8.742278e-09 0.35509804
1.2 -8.742278e-09 0.3472549
1.2 -8.742278e-09 0.33941177
1.2 -8.742278e-09 0.33156863
1.2 -8.742278e-09 0.32372549
1.2 -8.742278e-09 0.31588235
1.2 -8.742278e-09 0.30803922
1.2 -8.742278e-09 0.30019608
1.2 -8.742278e-09 0.29235294
1.2 -8.742278e-09 0.28450981
1.2 -8.742278e-09 0.27666667
1.2 -8.742278e-09 0.26882353
1.2 -8.742278e-09 0.2609804
1.2 -8.742278e-09 0.25313726
1.2 -8.742278e-09 0.24529412
1.2 -8.742278e-09 0.23745099
1.2 -8.742278e-09 0.22960785
1.2 -8.742278e-09 0.22176471
1.2 -8.742278e-09 0.21392158
1.2 -8.742278e-09 0.20607844
1.2 -8.742278e-09 0.1982353
1.2 -8.742278e-09 0.19039215
1.2 -8.742278e-09 0.18254901
1.2 -8.742278e-09 0.17470588
1.2 -8.742278e-09 0.16686274
1.2 -8.742278e-09 0.1590196
1.2 -8.742278e-09 0.15117647
1.2 -8.742278e-09 0.14333335
1.2 -8.742278e-09 0.13549021
1.2 -8.742278e-09 0.12764707
1.2 -8.742278e-09 0.11980393
1.2 -8.742278e-09 0.11196079
1.2 -8.742278e-09 0.10411765
1.2 -8.742278e-09 0.09627451
1.2 -8.742278e-09 0.088431373
1.2 -8.742278e-09 0.080588236
1.2 -8.742278e-09 0.0727451
1.2 -8.742278e-09 0.064901963
1.2 -8.742278e-09 0.057058826
1.2 -8.742278e-09 0.049215689
1.2 -8.742278e-09 0.041372553
1.2 -8.742278e-09 0.033529416
1.2 -8.742278e-09 0.025686279
1.2 -8.742278e-09 0.017843127
1.1961571 -0.039018065 0.40215686
1.1961571 -0.039018065 0.39431372
1.1961571 -0.039018065 0.38647059
1.1961571 -0.039018065 0.37862745
1.1961571 -0.039018065 0.37078431
1.1961571 -0.039018065 0.36294118
1.1961571 -0.039018065 0.35509804
1.1961571 -0.039018065 0.3472549
1.1961571 -0.039018065 0.33941177
1.1961571 -0.039018065 0.33156863
1.1961571 -0.039018065 0.32372549
1.1961571 -0.039018065 0.31588235
1.1961571 -0.039018065 0.30803922
1.1961571 -0.039018065 0.30019608
1.1961571 -0.039018065 0.29235294
1.1961571 -0.039018065 0.28450981
1.1961571 -0.039018065 0.27666667
1.1961571 -0.039018065 0.26882353
1.1961571 -0.039018065 0.2609804
1.1961571 -0.039018065 0.25313726
1.1961571 -0.039018065 0.24529412
1.1961571 -0.039018065 0.23745099
1.1961571 -0.039018065 0.22960785
1.1961571 -0.039018065 0.22176471
1.1961571 -0.039018065 0.21392158
1.1961571 -0.039018065 0.20607844
1.1961571 -0.039018065 0.1982353
1.1961571 -0.039018065 0.19039215
1.1961571 -0.039018065 0.18254901
1.1961571 -0.039018065 0.17470588
1.1961571 -0.039018065 0.16686274
1.1961571 -0.039018065 0.1590196
1.1961571 -0.039018065 0.15117647
1.1961571 -0.039018065 0.14333335
1.1961571 -0.039018065 0.13549021
1.1961571 -0.039018065 0.12764707
1.1961571 -0.039018065 0.11980393
1.1961571 -0.039018065 0.11196079
1.1961571 -0.039018065 0.10411765
1.1961571 -0.039018065 0.09627451
1.1961571 -0.039018065 0.088431373
1.1961571 -0.039018065 0.080588236
1.1961571 -0.039018065 0.0727451
1.1961571 -0.039018065 0.064901963
1.1961571 -0.039018065 0.057058826
1.1961571 -0.039018065 0.049215689
1.1961571 -0.039018065 0.041372553
1.1961571 -0.039018065 0.033529416
1.1961571 -0.039018065 0.025686279
1.1961571 -0.039018065 0.017843127
1.1847759 -0.076536678 0.40215686
1.1847759 -0.076536678 0.39431372
1.1847759 -0.076536678 0.38647059
1.1847759 -0.076536678 0.37862745
1.1847759 -0.076536678 0.37078431
1.1847759 -0.076536678 0.36294118
1.1847759 -0.076536678 0.35509804
1.1847759 -0.076536678 0.3472549
1.1847759 -0.076536678 0.33941177
1.1847759 -0.076536678 0.33156863
1.1847759 -0.076536678 0.32372549
1.1847759 -0.076536678 0.31588235
1.1847759 -0.076536678 0.30803922
1.1847759 -0.076536678 0.30019608
1.1847759 -0.076536678 0.29235294
1.1847759 -0.076536678 0.28450981
1.1847759 -0.076536678 0.27666667
1.1847759 -0.076536678 0.26882353
1.1847759 -0.076536678 0.2609804
1.1847759 -0.076536678 0.25313726
1.1847759 -0.076536678 0.24529412
1.1847759 -0.076536678 0.23745099
1.1847759 -0.076536678 0.22960785
1.1847759 -0.076536678 0.22176471
1.1847759 -0.076536678 0.21392158
1.1847759 -0.076536678 0.20607844
1.1847759 -0.076536678 0.1982353
1.1847759 -0.076536678 0.19039215
1.1847759 -0.076536678 0.18254901
1.1847759 -0.076536678 0.17470588
1.1847759 -0.076536678 0.16686274
1.1847759 -0.076536678 0.1590196
1.1847759 -0.076536678 0.15117647
1.1847759 -0.076536678 0.14333335
1.1847759 -0.076536678 0.13549021
1.1847759 -0.076536678 0.12764707
1.1847759 -0.076536678 0.11980393
1.1847759 -0.076536678 0.11196079
1.1847759 -0.076536678 0.10411765
1.1847759 -0.076536678 0.09627451
1.1847759 -0.076536678 0.088431373
1.1847759 -0.076536678 0.080588236
1.1847759 -0.076536678 0.0727451
1.1847759 -0.076536678 0.064901963
1.1847759 -0.076536678 0.057058826
1.1847759 -0.076536678 0.049215689
1.1847759 -0.076536678 0.041372553
1.1847759 -0.076536678 0.033529416
1.1847759 -0.076536678 0.025686279
1.1847759 -0.076536678 0.017843127
1.166294 -0.11111404 0.40215686
1.166294 -0.11111404 0.39431372
1.166294 -0.11111404 0.38647059
1.166294 -0.11111404 0.37862745
1.166294 -0.11111404 0.37078431
1.166294 -0.11111404 0.36294118
1.166294 -0.11111404 0.35509804
1.166294 -0.11111404 0.3472549
1.166294 -0.11111404 0.33941177
1.166294 -0.11111404 0.33156863
1.166294 -0.11111404 0.32372549
1.166294 -0.11111404 0.31588235
1.166294 -0.11111404 0.30803922
1.166294 -0.11111404 0.30019608
1.166294 -0.11111404 0.29235294
1.166294 -0.11111404 0.28450981
1.166294 -0.11111404 0.27666667
1.166294 -0.11111404 0.26882353
1.166294 -0.11111404 0.2609804
1.166294 -0.11111404 0.25313726
1.166294 -0.11111404 0.24529412
1.166294 -0.11111404 0.23745099
1.166294 -0.11111404 0.22960785
1.166294 -0.11111404 0.22176471
1.166294 -0.11111404 0.21392158
1.166294 -0.11111404 0.20607844
1.166294 -0.11111404 0.1982353
1.166294 -0.11111404 0.19039215
1.166294 -0.11111404 0.18254901
1.166294 -0.11111404 0.17470588
1.166294 -0.11111404 0.16686274
1.166294 -0.11111404 0.1590196
1.166294 -0.11111404 0.15117647
1.166294 -0.11111404 0.14333335
1.166294 -0.11111404 0.13549021
1.166294 -0.11111404 0.12764707
1.166294 -0.11111404 0.11980393
1.166294 -0.11111404 0.11196079
1.166294 -0.11111404 0.10411765
1.166294 -0.11111404 0.09627451
1.166294 -0.11111404 0.088431373
1.166294 -0.11111404 0.080588236
1.166294 -0.11111404 0.0727451
1.166294 -0.11111404 0.064901963
1.166294 -0.11111404 0.057058826
1.166294 -0.11111404 0.049215689
1.166294 -0.11111404 0.041372553
1.166294 -0.11111404 0.033529416
1.166294 -0.11111404 0.025686279
1.166294 -0.11111404 0.017843127
1.1414213 -0.14142136 0.40215686
1.1414213 -0.14142136 0.39431372
1.1414213 -0.14142136 0.38647059
1.1414213 -0.14142136 0.37862745
1.1414213 -0.14142136 0.37078431
1.1414213 -0.14142136 0.36294118
1.1414213 -0.14142136 0.35509804
1.1414213 -0.14142136 0.3472549
1.1414213 -0.14142136 0.33941177
1.1414213 -0.14142136 0.33156863
1.1414213 -0.14142136 0.32372549
1.1414213 -0.14142136 0.31588235
1.1414213 -0.14142136 0.30803922
1.1414213 -0.14142136 0.30019608
1.1414213 -0.14142136 0.29235294
1.1414213 -0.14142136 0.28450981
1.1414213 -0.14142136 0.27666667
1.1414213 -0.14142136 0.26882353
1.1414213 -0.14142136 0.2609804
1.1414213 -0.14142136 0.25313726
1.1414213 -0.14142136 0.24529412
1.1414213 -0.14142136 0.23745099
1.1414213 -0.14142136 0.22960785
1.1414213 -0.14142136 0.22176471
1.1414213 -0.14142136 0.21392158
1.1414213 -0.14142136 0.20607844
1.1414213 -0.14142136 0.1982353
1.1414213 -0.14142136 0.19039215
1.1414213 -0.14142136 0.18254901
1.1414213 -0.14142136 0.17470588
1.1414213 -0.14142136 0.16686274
1.1414213 -0.14142136 0.1590196
1.1414213 -0.14142136 0.15117647
1.1414213 -0.14142136 0.14333335
1.1414213 -0.14142136 0.13549021
1.1414213 -0.14142136 0.12764707
1.1414213 -0.14142136 0.11980393
1.1414213 -0.14142136 0.11196079
1.1414213 -0.14142136 0.10411765
1.1414213 -0.14142136 0.09627451
1.1414213 -0.14142136 0.088431373
1.1414213 -0.14142136 0.080588236
1.1414213 -0.14142136 0.0727451
1.1414213 -0.14142136 0.064901963
1.1414213 -0.14142136 0.057058826
1.1414213 -0.14142136 0.049215689
1.1414213 -0.14142136 0.041372553
1.1414213 -0.14142136 0.033529416
1.1414213 -0.14142136 0.025686279
1.1414213 -0.14142136 0.017843127
1.111114 -0.16629393 0.40215686
1.111114 -0.16629393 0.39431372
1.111114 -0.16629393 0.38647059
1.111114 -0.16629393 0.37862745
1.111114 -0.16629393 0.37078431
1.111114 -0.16629393 0.36294118
1.111114 -0.16629393 0.35509804
1.111114 -0.16629393 0.3472549
1.111114 -0.16629393 0.33941177
1.111114 -0.16629393 0.33156863
1.111114 -0.16629393 0.32372549
1.111114 -0.16629393 0.31588235
1.111114 -0.16629393 0.30803922
1.111114 -0.16629393 0.30019608
1.111114 -0.16629393 0.29235294
1.111114 -0.16629393 0.28450981
1.111114 -0.16629393 0.27666667
1.111114 -0.16629393 0.26882353
1.111114 -0.16629393 0.2609804
1.111114 -0.16629393 0.25313726
1.111114 -0.16629393 0.24529412
1.111114 -0.16629393 0.23745099
1.111114 -0.16629393 0.22960785
1.111114 -0.16629393 0.22176471
1.111114 -0.16629393 0.21392158
1.111114 -0.16629393 0.20607844
1.111114 -0.16629393 0.1982353
1.111114 -0.16629393 0.19039215
1.111114 -0.16629393 0.18254901
1.111114 -0.16629393 0.17470588
1.111114 -0.16629393 0.16686274
1.111114 -0.16629393 0.1590196
1.111114 -0.16629393 0.15117647
1.111114 -0.16629393 0.14333335
1.111114 -0.16629393 0.13549021
1.111114 -0.16629393 0.12764707
1.111114 -0.16629393 0.11980393
1.111114 -0.16629393 0.11196079
1.111114 -0.16629393 0.10411765
1.111114 -0.16629393 0.09627451
1.111114 -0.16629393 0.088431373
1.111114 -0.16629393 0.080588236
1.111114 -0.16629393 0.0727451
1.111114 -0.16629393 0.064901963
1.111114 -0.16629393 0.057058826
1.111114 -0.16629393 0.049215689
1.111114 -0.16629393 0.041372553
1.111114 -0.16629393 0.033529416
1.111114 -0.16629393 0.025686279
1.111114 -0.16629393 0.017843127
1.0765367 -0.1847759 0.40215686
1.0765367 -0.1847759 0.39431372
1.0765367 -0.1847759 0.38647059
1.0765367 -0.1847759 0.37862745
1.0765367 -0.1847759 0.37078431
1.0765367 -0.1847759 0.36294118
1.0765367 -0.1847759 0.35509804
1.0765367 -0.1847759 0.3472549
1.0765367 -0.1847759 0.33941177
1.0765367 -0.1847759 0.33156863
1.0765367 -0.1847759 0.32372549
1.0765367 -0.1847759 0.31588235
1.0765367 -0.1847759 0.30803922
1.0765367 -0.1847759 0.30019608
1.0765367 -0.1847759 0.29235294
1.0765367 -0.1847759 0.28450981
1.0765367 -0.1847759 0.27666667
1.0765367 -0.1847759 0.26882353
1.0765367 -0.1847759 0.2609804
1.0765367 -0.1847759 0.25313726
1.0765367 -0.1847759 0.24529412
1.0765367 -0.1847759 0.23745099
1.0765367 -0.1847759 0.22960785
1.0765367 -0.1847759 0.22176471
1.0765367 -0.1847759 0.21392158
1.0765367 -0.1847759 0.20607844
1.0765367 -0.1847759 0.1982353
1.0765367 -0.1847759 0.19039215
1.0765367 -0.1847759 0.18254901
1.0765367 -0.1847759 0.17470588
1.0765367 -0.1847759 0.16686274
1.0765367 -0.1847759 0.1590196
1.0765367 -0.1847759 0.15117647
1.0765367 -0.1847759 0.14333335
1.0765367 -0.1847759 0.13549021
1.0765367 -0.1847759 0.12764707
1.0765367 -0.1847759 0.11980393
1.0765367 -0.1847759 0.11196079
1.0765367 -0.1847759 0.10411765
1.0765367 -0.1847759 0.09627451
1.0765367 -0.1847759 0.088431373
1.0765367 -0.1847759 0.080588236
1.0765367 -0.1847759 0.0727451
1.0765367 -0.1847759 0.064901963
1.0765367 -0.1847759 0.057058826
1.0765367 -0.1847759 0.049215689
1.0765367 -0.1847759 0.041372553
1.0765367 -0.1847759 0.033529416
1.0765367 -0.1847759 0.025686279
1.0765367 -0.1847759 0.017843127
1.039018 -0.19615707 0.40215686
1.039018 -0.19615707 0.39431372
1.039018 -0.19615707 0.38647059
1.039018 -0.19615707 0.37862745
1.039018 -0.19615707 0.37078431
1.039018 -0.19615707 0.36294118
1.039018 -0.19615707 0.35509804
1.039018 -0.19615707 0.3472549
1.039018 -0.19615707 0.33941177
1.039018 -0.19615707 0.33156863
1.039018 -0.19615707 0.32372549
1.039018 -0.19615707 0.31588235
1.039018 -0.19615707 0.30803922
1.039018 -0.19615707 0.30019608
1.039018 -0.19615707 0.29235294
1.039018 -0.19615707 0.28450981
1.039018 -0.19615707 0.27666667
1.039018 -0.19615707 0.26882353
1.039018 -0.19615707 0.2609804
1.039018 -0.19615707 0.25313726
1.039018 -0.19615707 0.24529412
1.039018 -0.19615707 0.23745099
1.039018 -0.19615707 0.22960785
1.039018 -0.19615707 0.22176471
1.039018 -0.19615707 0.21392158
1.039018 -0.19615707 0.20607844
1.039018 -0.19615707 0.1982353
1.039018 -0.19615707 0.19039215
1.039018 -0.19615707 0.18254901
1.039018 -0.19615707 0.17470588
1.039018 -0.19615707 0.16686274
1.039018 -0.19615707 0.1590196
1.039018 -0.19615707 0.15117647
1.039018 -0.19615707 0.14333335
1.039018 -0.19615707 0.13549021
1.039018 -0.19615707 0.12764707
1.039018 -0.19615707 0.11980393
1.039018 -0.19615707 0.11196079
1.039018 -0.19615707 0.10411765
1.039018 -0.19615707 0.09627451
1.039018 -0.19615707 0.088431373
1.039018 -0.19615707 0.080588236
1.039018 -0.19615707 0.0727451
1.039018 -0.19615707 0.064901963
1.039018 -0.19615707 0.057058826
1.039018 -0.19615707 0.049215689
1.039018 -0.19615707 0.041372553
1.039018 -0.19615707 0.033529416
1.039018 -0.19615707 0.025686279
1.039018 -0.19615707 0.017843127
1 -0.2 0.40215686
1 -0.2 0.39431372
1 -0.2 0.38647059
1 -0.2 0.37862745
1 -0.2 0.37078431
1 -0.2 0.36294118
1 -0.2 0.35509804
1 -0.2 0.3472549
1 -0.2 0.33941177
1 -0.2 0.33156863
1 -0.2 0.32372549
1 -0.2 0.31588235
1 -0.2 0.30803922
1 -0.2 0.30019608
1 -0.2 0.29235294
1 -0.2 0.28450981
1 -0.2 0.27666667
1 -0.2 0.26882353
1 -0.2 0.2609804
1 -0.2 0.25313726
1 -0.2 0.24529412
1 -0.2 0.23745099
1 -0.2 0.22960785
1 -0.2 0.22176471
1 -0.2 0.21392158
1 -0.2 0.20607844
1 -0.2 0.1982353
1 -0.2 0.19039215
1 -0.2 0.18254901
1 -0.2 0.17470588
1 -0.2 0.16686274
1 -0.2 0.1590196
1 -0.2 0.15117647
1 -0.2 0.14333335
1 -0.2 0.13549021
1 -0.2 0.12764707
1 -0.2 0.11980393
1 -0.2 0.11196079
1 -0.2 0.10411765
1 -0.2 0.09627451
1 -0.2 0.088431373
1 -0.2 0.080588236
1 -0.2 0.0727451
1 -0.2 0.064901963
1 -0.2 0.057058826
1 -0.2 0.049215689
1 -0.2 0.041372553
1 -0.2 0.033529416
1 -0.2 0.025686279
1 -0.2 0.017843127
0.96098197 -0.19615707 0.40215686
0.96098197 -0.19615707 0.39431372
0.96098197 -0.19615707 0.38647059
0.96098197 -0.19615707 0.37862745
0.96098197 -0.19615707 0.37078431
0.96098197 -0.19615707 0.36294118
0.96098197 -0.19615707 0.35509804
0.96098197 -0.19615707 0.3472549
0.96098197 -0.19615707 0.33941177
0.96098197 -0.19615707 0.33156863
0.96098197 -0.19615707 0.32372549
0.96098197 -0.19615707 0.31588235
0.96098197 -0.19615707 0.30803922
0.96098197 -0.19615707 0.30019608
0.96098197 -0.19615707 0.29235294
0.96098197 -0.19615707 0.28450981
0.96098197 -0.19615707 0.27666667
0.96098197 -0.19615707 0.26882353
0.96098197 -0.19615707 0.2609804
0.96098197 -0.19615707 0.25313726
0.96098197 -0.19615707 0.24529412
0.96098197 -0.19615707 0.23745099
0.96098197 -0.19615707 0.22960785
0.96098197 -0.19615707 0.22176471
0.96098197 -0.19615707 0.21392158
0.96098197 -0.19615707 0.20607844
0.96098197 -0.19615707 0.1982353
0.96098197 -0.19615707 0.19039215
0.96098197 -0.19615707 0.18254901
0.96098197 -0.19615707 0.17470588
0.96098197 -0.19615707 0.16686274
0.96098197 -0.19615707 0.1590196
0.96098197 -0.19615707 0.15117647
0.96098197 -0.19615707 0.14333335
0.96098197 -0.19615707 0.13549021
0.96098197 -0.19615707 0.12764707
0.96098197 -0.19615707 0.11980393
0.96098197 -0.19615707 0.11196079
0.96098197 -0.19615707 0.10411765
0.96098197 -0.19615707 0.09627451
0.96098197 -0.19615707 0.088431373
0.96098197 -0.19615707 0.080588236
0.96098197 -0.19615707 0.0727451
0.96098197 -0.19615707 0.064901963
0.96098197 -0.19615707 0.057058826
0.96098197 -0.19615707 0.049215689
0.96098197 -0.19615707 0.041372553
0.96098197 -0.19615707 0.033529416
0.96098197 -0.19615707 0.025686279
0.96098197 -0.19615707 0.017843127
0.92346334 -0.1847759 0.40215686
0.92346334 -0.1847759 0.39431372
0.92346334 -0.1847759 0.38647059
0.92346334 -0.1847759 0.37862745
0.92346334 -0.1847759 0.37078431
0.92346334 -0.1847759 0.36294118
0.92346334 -0.1847759 0.35509804
0.92346334 -0.1847759 0.3472549
0.92346334 -0.1847759 0.33941177
0.92346334 -0.1847759 0.33156863
0.92346334 -0.1847759 0.32372549
0.92346334 -0.1847759 0.31588235
0.92346334 -0.1847759 0.30803922
0.92346334 -0.1847759 0.30019608
0.92346334 -0.1847759 0.29235294
0.92346334 -0.1847759 0.28450981
0.92346334 -0.1847759 0.27666667
0.92346334 -0.1847759 0.26882353
0.92346334 -0.1847759 0.2609804
0.92346334 -0.1847759 0.25313726
0.92346334 -0.1847759 0.24529412
0.92346334 -0.1847759 0.23745099
0.92346334 -0.1847759 0.22960785
0.92346334 -0.1847759 0.22176471
0.92346334 -0.1847759 0.21392158
0.92346334 -0.1847759 0.20607844
0.92346334 -0.1847759 0.1982353
0.92346334 -0.1847759 0.19039215
0.92346334 -0.1847759 0.18254901
0.92346334 -0.1847759 0.17470588
0.92346334 -0.1847759 0.16686274
0.92346334 -0.1847759 0.1590196
0.92346334 -0.1847759 0.15117647
0.92346334 -0.1847759 0.14333335
0.92346334 -0.1847759 0.13549021
0.92346334 -0.1847759 0.12764707
0.92346334 -0.1847759 0.11980393
0.92346334 -0.1847759 0.11196079
0.92346334 -0.1847759 0.10411765
0.92346334 -0.1847759 0.09627451
0.92346334 -0.1847759 0.088431373
0.92346334 -0.1847759 0.080588236
0.92346334 -0.1847759 0.0727451
0.92346334 -0.1847759 0.064901963
0.92346334 -0.1847759 0.057058826
0.92346334 -0.1847759 0.049215689
0.92346334 -0.1847759 0.041372553
0.92346334 -0.1847759 0.033529416
0.92346334 -0.1847759 0.025686279
0.92346334 -0.1847759 0.017843127
0.88888592 -0.1662939 0.40215686
0.88888592 -0.1662939 0.39431372
0.88888592 -0.1662939 0.38647059
0.88888592 -0.1662939 0.37862745
0.88888592 -0.1662939 0.37078431
0.88888592 -0.1662939 0.36294118
0.88888592 -0.1662939 0.35509804
0.88888592 -0.1662939 0.3472549
0.88888592 -0.1662939 0.33941177
0.88888592 -0.1662939 0.33156863
0.88888592 -0.1662939 0.32372549
0.88888592 -0.1662939 0.31588235
0.88888592 -0.1662939 0.30803922
0.88888592 -0.1662939 0.30019608
0.88888592 -0.1662939 0.29235294
0.88888592 -0.1662939 0.28450981
0.88888592 -0.1662939 0.27666667
0.88888592 -0.1662939 0.26882353
0.88888592 -0.1662939 0.2609804
0.88888592 -0.1662939 0.25313726
0.88888592 -0.1662939 0.24529412
0.88888592 -0.1662939 0.23745099
0.88888592 -0.1662939 0.22960785
0.88888592 -0.1662939 0.22176471
0.88888592 -0.1662939 0.21392158
0.88888592 -0.1662939 0.20607844
0.88888592 -0.1662939 0.1982353
0.88888592 -0.1662939 0.19039215
0.88888592 -0.1662939 0.18254901
0.88888592 -0.1662939 0.17470588
0.88888592 -0.1662939 0.16686274
0.88888592 -0.1662939 0.1590196
0.88888592 -0.1662939 0.15117647
0.88888592 -0.1662939 0.14333335
0.88888592 -0.1662939 0.13549021
0.88888592 -0.1662939 0.12764707
0.88888592 -0.1662939 0.11980393
0.88888592 -0.1662939 0.11196079
0.88888592 -0.1662939 0.10411765
0.88888592 -0.1662939 0.09627451
0.88888592 -0.1662939 0.088431373
0.88888592 -0.1662939 0.080588236
0.88888592 -0.1662939 0.0727451
0.88888592 -0.1662939 0.064901963
0.88888592 -0.1662939 0.057058826
0.88888592 -0.1662939 0.049215689
0.88888592 -0.1662939 0.041372553
0.88888592 -0.1662939 0.033529416
0.88888592 -0.1662939 0.025686279
0.88888592 -0.1662939 0.017843127
0.85857868 -0.14142136 0.40215686
0.85857868 -0.14142136 0.39431372
0.85857868 -0.14142136 0.38647059
0.85857868 -0.14142136 0.37862745
0.85857868 -0.14142136 0.37078431
0.85857868 -0.14142136 0.36294118
0.85857868 -0.14142136 0.35509804
0.85857868 -0.14142136 0.3472549
0.85857868 -0.14142136 0.33941177
0.85857868 -0.14142136 0.33156863
0.85857868 -0.14142136 0.32372549
0.85857868 -0.14142136 0.31588235
0.85857868 -0.14142136 0.30803922
0.85857868 -0.14142136 0.30019608
0.85857868 -0.14142136 0.29235294
0.85857868 -0.14142136 0.28450981
0.85857868 -0.14142136 0.27666667
0.85857868 -0.14142136 0.26882353
0.85857868 -0.14142136 0.2609804
0.85857868 -0.14142136 0.25313726
0.85857868 -0.14142136 0.24529412
0.85857868 -0.14142136 0.23745099
0.85857868 -0.14142136 0.22960785
0.85857868 -0.14142136 0.22176471
0.85857868 -0.14142136 0.21392158
0.85857868 -0.14142136 0.20607844
0.85857868 -0.14142136 0.1982353
0.85857868 -0.14142136 0.19039215
0.85857868 -0.14142136 0.18254901
0.85857868 -0.14142136 0.17470588
0.85857868 -0.14142136 0.16686274
0.85857868 -0.14142136 0.1590196
0.85857868 -0.14142136 0.15117647
0.85857868 -0.14142136 0.14333335
0.85857868 -0.14142136 0.13549021
0.85857868 -0.14142136 0.12764707
0.85857868 -0.14142136 0.11980393
0.85857868 -0.14142136 0.11196079
0.85857868 -0.14142136 0.10411765
0.85857868 -0.14142136 0.09627451
0.85857868 -0.14142136 0.088431373
0.85857868 -0.14142136 0.080588236
0.85857868 -0.14142136 0.0727451
0.85857868 -0.14142136 0.064901963
0.85857868 -0.14142136 0.057058826
0.85857868 -0.14142136 0.049215689
0.85857868 -0.14142136 0.041372553
0.85857868 -0.14142136 0.033529416
0.85857868 -0.14142136 0.025686279
0.85857868 -0.14142136 0.017843127
0.83370608 -0.11111408 0.40215686
0.83370608 -0.11111408 0.39431372
0.83370608 -0.11111408 0.38647059
0.83370608 -0.11111408 0.37862745
0.83370608 -0.11111408 0.37078431
0.83370608 -0.11111408 0.36294118
0.83370608 -0.11111408 0.35509804
0.83370608 -0.11111408 0.3472549
0.83370608 -0.11111408 0.33941177
0.83370608 -0.11111408 0.33156863
0.83370608 -0.11111408 0.32372549
0.83370608 -0.11111408 0.31588235
0.83370608 -0.11111408 0.30803922
0.83370608 -0.11111408 0.30019608
0.83370608 -0.11111408 0.29235294
0.83370608 -0.11111408 0.28450981
0.83370608 -0.11111408 0.27666667
0.83370608 -0.11111408 0.26882353
0.83370608 -0.11111408 0.2609804
0.83370608 -0.11111408 0.25313726
0.83370608 -0.11111408 0.24529412
0.83370608 -0.11111408 0.23745099
0.83370608 -0.11111408 0.22960785
0.83370608 -0.11111408 0.22176471
0.83370608 -0.11111408 0.21392158
0.83370608 -0.11111408 0.20607844
0.83370608 -0.11111408 0.1982353
0.83370608 -0.11111408 0.19039215
0.83370608 -0.11111408 0.18254901
0.83370608 -0.11111408 0.17470588
0.83370608 -0.11111408 0.16686274
0.83370608 -0.11111408 0.1590196
0.83370608 -0.11111408 0.15117647
0.83370608 -0.11111408 0.14333335
0.83370608 -0.11111408 0.13549021
0.83370608 -0.11111408 0.12764707
0.83370608 -0.11111408 0.11980393
0.83370608 -0.11111408 0.11196079
0.83370608 -0.11111408 0.10411765
0.83370608 -0.11111408 0.09627451
0.83370608 -0.11111408 0.088431373
0.83370608 -0.11111408 0.080588236
0.83370608 -0.11111408 0.0727451
0.83370608 -0.11111408 0.064901963
0.83370608 -0.11111408 0.057058826
0.83370608 -0.11111408 0.049215689
0.83370608 -0.11111408 0.041372553
0.83370608 -0.11111408 0.033529416
0.83370608 -0.11111408 0.025686279
0.83370608 -0.11111408 0.017843127
0.81522411 -0.076536715 0.40215686
0.81522411 -0.076536715 0.39431372
0.81522411 -0.076536715 0.38647059
0.81522411 -0.076536715 0.37862745
0.81522411 -0.076536715 0.37078431
0.81522411 -0.076536715 0.36294118
0.81522411 -0.076536715 0.35509804
0.81522411 -0.076536715 0.3472549
0.81522411 -0.076536715 0.33941177
0.81522411 -0.076536715 0.33156863
0.81522411 -0.076536715 0.32372549
0.81522411 -0.076536715 0.31588235
0.81522411 -0.076536715 0.30803922
0.81522411 -0.076536715 0.30019608
0.81522411 -0.076536715 0.29235294
0.81522411 -0.076536715 0.28450981
0.81522411 -0.076536715 0.27666667
0.81522411 -0.076536715 0.26882353
0.81522411 -0.076536715 0.2609804
0.81522411 -0.076536715 0.25313726
0.81522411 -0.076536715 0.24529412
0.81522411 -0.076536715 0.23745099
0.81522411 -0.076536715 0.22960785
0.81522411 -0.076536715 0.22176471
0.81522411 -0.076536715 0.21392158
0.81522411 -0.076536715 0.20607844
0.81522411 -0.076536715 0.1982353
0.81522411 -0.076536715 0.19039215
0.81522411 -0.076536715 0.18254901
0.81522411 -0.076536715 0.17470588
0.81522411 -0.076536715 0.16686274
0.81522411 -0.076536715 0.1590196
0.81522411 -0.076536715 0.15117647
0.81522411 -0.076536715 0.14333335
0.81522411 -0.076536715 0.13549021
0.81522411 -0.076536715 0.12764707
0.81522411 -0.076536715 0.11980393
0.81522411 -0.076536715 0.11196079
0.81522411 -0.076536715 0.10411765
0.81522411 -0.076536715 0.09627451
0.81522411 -0.076536715 0.088431373
0.81522411 -0.076536715 0.080588236
0.81522411 -0.076536715 0.0727451
0.81522411 -0.076536715 0.064901963
0.81522411 -0.076536715 0.057058826
0.81522411 -0.076536715 0.049215689
0.81522411 -0.076536715 0.041372553
0.81522411 -0.076536715 0.033529416
0.81522411 -0.076536715 0.025686279
0.81522411 -0.076536715 0.017843127
0.80384296 -0.039018076 0.40215686
0.80384296 -0.039018076 0.39431372
0.80384296 -0.039018076 0.38647059
0.80384296 -0.039018076 0.37862745
0.80384296 -0.039018076 0.37078431
0.80384296 -0.039018076 0.36294118
0.80384296 -0.039018076 0.35509804
0.80384296 -0.039018076 0.3472549
0.80384296 -0.039018076 0.33941177
0.80384296 -0.039018076 0.33156863
0.80384296 -0.039018076 0.32372549
0.80384296 -0.039018076 0.31588235
0.80384296 -0.039018076 0.30803922
0.80384296 -0.039018076 0.30019608
0.80384296 -0.039018076 0.29235294
0.80384296 -0.039018076 0.28450981
0.80384296 -0.039018076 0.27666667
0.80384296 -0.039018076 0.26882353
0.80384296 -0.039018076 0.2609804
0.80384296 -0.039018076 0.25313726
0.80384296 -0.039018076 0.24529412
0.80384296 -0.039018076 0.23745099
0.80384296 -0.039018076 0.22960785
0.80384296 -0.039018076 0.22176471
0.80384296 -0.039018076 0.21392158
0.80384296 -0.039018076 0.20607844
0.80384296 -0.039018076 0.1982353
0.80384296 -0.039018076 0.19039215
0.80384296 -0.039018076 0.18254901
0.80384296 -0.039018076 0.17470588
0.80384296 -0.039018076 0.16686274
0.80384296 -0.039018076 0.1590196
0.80384296 -0.039018076 0.15117647
0.80384296 -0.039018076 0.14333335
0.80384296 -0.039018076 0.13549021
0.80384296 -0.039018076 0.12764707
0.80384296 -0.039018076 0.11980393
0.80384296 -0.039018076 0.11196079
0.80384296 -0.039018076 0.10411765
0.80384296 -0.039018076 0.09627451
0.80384296 -0.039018076 0.088431373
0.80384296 -0.039018076 0.080588236
0.80384296 -0.039018076 0.0727451
0.80384296 -0.039018076 0.064901963
0.80384296 -0.039018076 0.057058826
0.80384296 -0.039018076 0.049215689
0.80384296 -0.039018076 0.041372553
0.80384296 -0.039018076 0.033529416
0.80384296 -0.039018076 0.025686279
0.80384296 -0.039018076 0.017843127
0.80000001 2.3849762e-09 0.40215686
0.80000001 2.3849762e-09 0.39431372
0.80000001 2.3849762e-09 0.38647059
0.80000001 2.3849762e-09 0.37862745
0.80000001 2.3849762e-09 0.37078431
0.80000001 2.3849762e-09 0.36294118
0.80000001 2.3849762e-09 0.35509804
0.80000001 2.3849762e-09 0.3472549
0.80000001 2.3849762e-09 0.33941177
0.80000001 2.3849762e-09 0.33156863
0.80000001 2.3849762e-09 0.32372549
0.80000001 2.3849762e-09 0.31588235
0.80000001 2.3849762e-09 0.30803922
0.80000001 2.3849762e-09 0.30019608
0.80000001 2.3849762e-09 0.29235294
0.80000001 2.3849762e-09 0.28450981
0.80000001 2.3849762e-09 0.27666667
0.80000001 2.3849762e-09 0.26882353
0.80000001 2.3849762e-09 0.2609804
0.80000001 2.3849762e-09 0.25313726
0.80000001 2.3849762e-09 0.24529412
0.80000001 2.3849762e-09 0.23745099
0.80000001 2.3849762e-09 0.22960785
0.80000001 2.3849762e-09 0.22176471
0.80000001 2.3849762e-09 0.21392158
0.80000001 2.3849762e-09 0.20607844
0.80000001 2.3849762e-09 0.1982353
0.80000001 2.3849762e-09 0.19039215
0.80000001 2.3849762e-09 0.18254901
0.80000001 2.3849762e-09 0.17470588
0.80000001 2.3849762e-09 0.16686274
0.80000001 2.3849762e-09 0.1590196
0.80000001 2.3849762e-09 0.15117647
0.80000001 2.3849762e-09 0.14333335
0.80000001 2.3849762e-09 0.13549021
0.80000001 2.3849762e-09 0.12764707
0.80000001 2.3849762e-09 0.11980393
0.80000001 2.3849762e-09 0.11196079
0.80000001 2.3849762e-09 0.10411765
0.80000001 2.3849762e-09 0.09627451
0.80000001 2.3849762e-09 0.088431373
0.80000001 2.3849762e-09 0.080588236
0.80000001 2.3849762e-09 0.0727451
0.80000001 2.3849762e-09 0.064901963
0.80000001 2.3849762e-09 0.057058826
0.80000001 2.3849762e-09 0.049215689
0.80000001 2.3849762e-09 0.041372553
0.80000001 2.3849762e-09 0.033529416
0.80000001 2.3849762e-09 0.025686279
0.80000001 2.3849762e-09 0.017843127
0.80384296 0.039018083 0.40215686
0.80384296 0.039018083 0.39431372
0.80384296 0.039018083 0.38647059
0.80384296 0.039018083 0.37862745
0.80384296 0.039018083 0.37078431
0.80384296 0.039018083 0.36294118
0.80384296 0.039018083 0.35509804
0.80384296 0.039018083 0.3472549
0.80384296 0.039018083 0.33941177
0.80384296 0.039018083 0.33156863
0.80384296 0.039018083 0.32372549
0.80384296 0.039018083 0.31588235
0.80384296 0.039018083 0.30803922
0.80384296 0.039018083 0.30019608
0.80384296 0.039018083 0.29235294
0.80384296 0.039018083 0.28450981
0.80384296 0.039018083 0.27666667
0.80384296 0.039018083 0.26882353
0.80384296 0.039018083 0.2609804
0.80384296 0.039018083 0.25313726
0.80384296 0.039018083 0.24529412
0.80384296 0.039018083 0.23745099
0.80384296 0.039018083 0.22960785
0.80384296 0.039018083 0.22176471
0.80384296 0.039018083 0.21392158
0.80384296 0.039018083 0.20607844
0.80384296 0.039018083 0.1982353
0.80384296 0.039018083 0.19039215
0.80384296 0.039018083 0.18254901
0.80384296 0.039018083 0.17470588
0.80384296 0.039018083 0.16686274
0.80384296 0.039018083 0.1590196
0.80384296 0.039018083 0.15117647
0.80384296 0.039018083 0.14333335
0.80384296 0.039018083 0.13549021
0.80384296 0.039018083 0.12764707
0.80384296 0.039018083 0.11980393
0.80384296 0.039018083 0.11196079
0.80384296 0.039018083 0.10411765
0.80384296 0.039018083 0.09627451
0.80384296 0.039018083 0.088431373
0.80384296 0.039018083 0.080588236
0.80384296 0.039018083 0.0727451
0.80384296 0.039018083 0.064901963
0.80384296 0.039018083 0.057058826
0.80384296 0.039018083 0.049215689
0.80384296 0.039018083 0.041372553
0.80384296 0.039018083 0.033529416
0.80384296 0.039018083 0.025686279
0.80384296 0.039018083 0.017843127
0.81522411 0.076536722 0.40215686
0.81522411 0.076536722 0.39431372
0.81522411 0.076536722 0.38647059
0.81522411 0.076536722 0.37862745
0.81522411 0.076536722 0.37078431
0.81522411 0.076536722 0.36294118
0.81522411 0.076536722 0.35509804
0.81522411 0.076536722 0.3472549
0.81522411 0.076536722 0.33941177
0.81522411 0.076536722 0.33156863
0.81522411 0.076536722 0.32372549
0.81522411 0.076536722 0.31588235
0.81522411 0.076536722 0.30803922
0.81522411 0.076536722 0.30019608
0.81522411 0.076536722 0.29235294
0.81522411 0.076536722 0.28450981
0.81522411 0.076536722 0.27666667
0.81522411 0.076536722 0.26882353
0.81522411 0.076536722 0.2609804
0.81522411 0.076536722 0.25313726
0.81522411 0.076536722 0.24529412
0.81522411 0.076536722 0.23745099
0.81522411 0.076536722 0.22960785
0.81522411 0.076536722 0.22176471
0.81522411 0.076536722 0.21392158
0.81522411 0.076536722 0.20607844
0.81522411 0.076536722 0.1982353
0.81522411 0.076536722 0.19039215
0.81522411 0.076536722 0.18254901
0.81522411 0.076536722 0.17470588
0.81522411 0.076536722 0.16686274
0.81522411 0.076536722 0.1590196
0.81522411 0.076536722 0.15117647
0.81522411 0.076536722 0.14333335
0.81522411 0.076536722 0.13549021
0.81522411 0.076536722 0.12764707
0.81522411 0.076536722 0.11980393
0.81522411 0.076536722 0.11196079
0.81522411 0.076536722 0.10411765
0.81522411 0.076536722 0.09627451
0.81522411 0.076536722 0.088431373
0.81522411 0.076536722 0.080588236
0.81522411 0.076536722 0.0727451
0.81522411 0.076536722 0.064901963
0.81522411 0.076536722 0.057058826
0.81522411 0.076536722 0.049215689
0.81522411 0.076536722 0.041372553
0.81522411 0.076536722 0.033529416
0.81522411 0.076536722 0.025686279
0.81522411 0.076536722 0.017843127
0.83370602 0.11111402 0.40215686
0.83370602 0.11111402 0.39431372
0.83370602 0.11111402 0.38647059
0.83370602 0.11111402 0.37862745
0.83370602 0.11111402 0.37078431
0.83370602 0.11111402 0.36294118
0.83370602 0.11111402 0.35509804
0.83370602 0.11111402 0.3472549
0.83370602 0.11111402 0.33941177
0.83370602 0.11111402 0.33156863
0.83370602 0.11111402 0.32372549
0.83370602 0.11111402 0.31588235
0.83370602 0.11111402 0.30803922
0.83370602 0.11111402 0.30019608
0.83370602 0.11111402 0.29235294
0.83370602 0.11111402 0.28450981
0.83370602 0.11111402 0.27666667
0.83370602 0.11111402 0.26882353
0.83370602 0.11111402 0.2609804
0.83370602 0.11111402 0.25313726
0.83370602 0.11111402 0.24529412
0.83370602 0.11111402 0.23745099
0.83370602 0.11111402 0.22960785
0.83370602 0.11111402 0.22176471
0.83370602 0.11111402 0.21392158
0.83370602 0.11111402 0.20607844
0.83370602 0.11111402 0.1982353
0.83370602 0.11111402 0.19039215
0.83370602 0.11111402 0.18254901
0.83370602 0.11111402 0.17470588
0.83370602 0.11111402 0.16686274
0.83370602 0.11111402 0.1590196
0.83370602 0.11111402 0.15117647
0.83370602 0.11111402 0.14333335
0.83370602 0.11111402 0.13549021
0.83370602 0.11111402 0.12764707
0.83370602 0.11111402 0.11980393
0.83370602 0.11111402 0.11196079
0.83370602 0.11111402 0.10411765
0.83370602 0.11111402 0.09627451
0.83370602 0.11111402 0.088431373
0.83370602 0.11111402 0.080588236
0.83370602 0.11111402 0.0727451
0.83370602 0.11111402 0.064901963
0.83370602 0.11111402 0.057058826
0.83370602 0.11111402 0.049215689
0.83370602 0.11111402 0.041372553
0.83370602 0.11111402 0.033529416
0.83370602 0.11111402 0.025686279
0.83370602 0.11111402 0.017843127
0.85857862 0.14142133 0.40215686
0.85857862 0.14142133 0.39431372
0.85857862 0.14142133 0.38647059
0.85857862 0.14142133 0.37862745
0.85857862 0.14142133 0.37078431
0.85857862 0.14142133 0.36294118
0.85857862 0.14142133 0.35509804
0.85857862 0.14142133 0.3472549
0.85857862 0.14142133 0.33941177
0.85857862 0.14142133 0.33156863
0.85857862 0.14142133 0.32372549
0.85857862 0.14142133 0.31588235
0.85857862 0.14142133 0.30803922
0.85857862 0.14142133 0.30019608
0.85857862 0.14142133 0.29235294
0.85857862 0.14142133 0.28450981
0.85857862 0.14142133 0.27666667
0.85857862 0.14142133 0.26882353
0.85857862 0.14142133 0.2609804
0.85857862 0.14142133 0.25313726
0.85857862 0.14142133 0.24529412
0.85857862 0.14142133 0.23745099
0.85857862 0.14142133 0.22960785
0.85857862 0.14142133 0.22176471
0.85857862 0.14142133 0.21392158
0.85857862 0.14142133 0.20607844
0.85857862 0.14142133 0.1982353
0.85857862 0.14142133 0.19039215
0.85857862 0.14142133 0.18254901
0.85857862 0.14142133 0.17470588
0.85857862 0.14142133 0.16686274
0.85857862 0.14142133 0.1590196
0.85857862 0.14142133 0.15117647
0.85857862 0.14142133 0.14333335
0.85857862 0.14142133 0.13549021
0.85857862 0.14142133 0.12764707
0.85857862 0.14142133 0.11980393
0.85857862 0.14142133 0.11196079
0.85857862 0.14142133 0.10411765
0.85857862 0.14142133 0.09627451
0.85857862 0.14142133 0.088431373
0.85857862 0.14142133 0.080588236
0.85857862 0.14142133 0.0727451
0.85857862 0.14142133 0.064901963
0.85857862 0.14142133 0.057058826
0.85857862 0.14142133 0.049215689
0.85857862 0.14142133 0.041372553
0.85857862 0.14142133 0.033529416
0.85857862 0.14142133 0.025686279
0.85857862 0.14142133 0.017843127
0.88888592 0.16629392 0.40215686
0.88888592 0.16629392 0.39431372
0.88888592 0.16629392 0.38647059
0.88888592 0.16629392 0.37862745
0.88888592 0.16629392 0.37078431
0.88888592 0.16629392 0.36294118
0.88888592 0.16629392 0.35509804
0.88888592 0.16629392 0.3472549
0.88888592 0.16629392 0.33941177
0.88888592 0.16629392 0.33156863
0.88888592 0.16629392 0.32372549
0.88888592 0.16629392 0.31588235
0.88888592 0.16629392 0.30803922
0.88888592 0.16629392 0.30019608
0.88888592 0.16629392 0.29235294
0.88888592 0.16629392 0.28450981
0.88888592 0.16629392 0.27666667
0.88888592 0.16629392 0.26882353
0.88888592 0.16629392 0.2609804
0.88888592 0.16629392 0.25313726
0.88888592 0.16629392 0.24529412
0.88888592 0.16629392 0.23745099
0.88888592 0.16629392 0.22960785
0.88888592 0.16629392 0.22176471
0.88888592 0.16629392 0.21392158
0.88888592 0.16629392 0.20607844
0.88888592 0.16629392 0.1982353
0.88888592 0.16629392 0.19039215
0.88888592 0.16629392 0.18254901
0.88888592 0.16629392 0.17470588
0.88888592 0.16629392 0.16686274
0.88888592 0.16629392 0.1590196
0.88888592 0.16629392 0.15117647
0.88888592 0.16629392 0.14333335
0.88888592 0.16629392 0.13549021
0.88888592 0.16629392 0.12764707
0.88888592 0.16629392 0.11980393
0.88888592 0.16629392 0.11196079
0.88888592 0.16629392 0.10411765
0.88888592 0.16629392 0.09627451
0.88888592 0.16629392 0.088431373
0.88888592 0.16629392 0.080588236
0.88888592 0.16629392 0.0727451
0.88888592 0.16629392 0.064901963
0.88888592 0.16629392 0.057058826
0.88888592 0.16629392 0.049215689
0.88888592 0.16629392 0.041372553
0.88888592 0.16629392 0.033529416
0.88888592 0.16629392 0.025686279
