# .PCD v0.7 - Point Cloud Data file format
VERSION 0.7
FIELDS x y z
SIZE 4 4 4
TYPE F F F
COUNT 1 1 1
WIDTH 1580
HEIGHT 1
VIEWPOINT 0 0 0 1 0 0 0
POINTS 1580
DATA ascii
0.85857862 1.1414213 0.41
0.88888592 1.1662939 0.0099999905
0.88888592 1.1662939 0.41
0.92346334 1.1847759 0.0099999905
0.92346334 1.1847759 0.41
0.96098197 1.1961571 0.0099999905
0.96098197 1.1961571 0.41
1 1.2 0.017843127
1 1.2 0.025686264
1 1.2 0.033529401
1 1.2 0.041372538
1 1.2 0.049215674
1 1.2 0.057058811
1 1.2 0.064901948
1 1.2 0.072745085
1 1.2 0.080588222
1 1.2 0.088431358
1 1.2 0.096274495
1 1.2 0.10411763
1 1.2 0.11196077
1 1.2 0.11980391
1 1.2 0.12764704
1 1.2 0.13549018
1 1.2 0.14333332
1 1.2 0.15117645
1 1.2 0.15901959
1 1.2 0.16686273
1 1.2 0.17470586
1 1.2 0.182549
1 1.2 0.19039214
1 1.2 0.19823527
1 1.2 0.20607841
1 1.2 0.21392155
1 1.2 0.22176468
1 1.2 0.22960784
1 1.2 0.23745097
1 1.2 0.24529411
1 1.2 0.25313723
1 1.2 0.26098037
1 1.2 0.2688235
1 1.2 0.27666664
1 1.2 0.28450978
1 1.2 0.29235291
1 1.2 0.30019605
1 1.2 0.30803919
1 1.2 0.31588233
1 1.2 0.32372546
1 1.2 0.3315686
1 1.2 0.33941174
1 1.2 0.34725487
1 1.2 0.35509801
1 1.2 0.36294115
1 1.2 0.37078428
1 1.2 0.37862742
1 1.2 0.38647056
1 1.2 0.39431369
1 1.2 0.40215686
1.039018 1.1961571 0.40215686
1.039018 1.1961571 0.39431372
1.039018 1.1961571 0.38647059
1.039018 1.1961571 0.37862745
1.039018 1.1961571 0.37078431
1.039018 1.1961571 0.36294118
1.039018 1.1961571 0.35509804
1.039018 1.1961571 0.3472549
1.039018 1.1961571 0.33941177
1.039018 1.1961571 0.33156863
1.039018 1.1961571 0.32372549
1.039018 1.1961571 0.31588235
1.039018 1.1961571 0.30803922
1.039018 1.1961571 0.30019608
1.039018 1.1961571 0.29235294
1.039018 1.1961571 0.28450981
1.039018 1.1961571 0.27666667
1.039018 1.1961571 0.26882353
1.039018 1.1961571 0.2609804
1.039018 1.1961571 0.25313726
1.039018 1.1961571 0.24529412
1.039018 1.1961571 0.23745099
1.039018 1.1961571 0.22960785
1.039018 1.1961571 0.22176471
1.039018 1.1961571 0.21392158
1.039018 1.1961571 0.20607844
1.039018 1.1961571 0.1982353
1.039018 1.1961571 0.19039215
1.039018 1.1961571 0.18254901
1.039018 1.1961571 0.17470588
1.039018 1.1961571 0.16686274
1.039018 1.1961571 0.1590196
1.039018 1.1961571 0.15117647
1.039018 1.1961571 0.14333335
1.039018 1.1961571 0.13549021
1.039018 1.1961571 0.12764707
1.039018 1.1961571 0.11980393
1.039018 1.1961571 0.11196079
1.039018 1.1961571 0.10411765
1.039018 1.1961571 0.09627451
1.039018 1.1961571 0.088431373
1.039018 1.1961571 0.080588236
1.039018 1.1961571 0.0727451
1.039018 1.1961571 0.064901963
1.039018 1.1961571 0.057058826
1.039018 1.1961571 0.049215689
1.039018 1.1961571 0.041372553
1.039018 1.1961571 0.033529416
1.039018 1.1961571 0.025686279
1.039018 1.1961571 0.017843127
1.0765367 1.1847759 0.40215686
1.0765367 1.1847759 0.39431372
1.0765367 1.1847759 0.38647059
1.0765367 1.1847759 0.37862745
1.0765367 1.1847759 0.37078431
1.0765367 1.1847759 0.36294118
1.0765367 1.1847759 0.35509804
1.0765367 1.1847759 0.3472549
1.0765367 1.1847759 0.33941177
1.0765367 1.1847759 0.33156863
1.0765367 1.1847759 0.32372549
1.0765367 1.1847759 0.31588235
1.0765367 1.1847759 0.30803922
1.0765367 1.1847759 0.30019608
1.0765367 1.1847759 0.29235294
1.0765367 1.1847759 0.28450981
1.0765367 1.1847759 0.27666667
1.0765367 1.1847759 0.26882353
1.0765367 1.1847759 0.2609804
1.0765367 1.1847759 0.25313726
1.0765367 1.1847759 0.24529412
1.0765367 1.1847759 0.23745099
1.0765367 1.1847759 0.22960785
1.0765367 1.1847759 0.22176471
1.0765367 1.1847759 0.21392158
1.0765367 1.1847759 0.20607844
1.0765367 1.1847759 0.1982353
1.0765367 1.1847759 0.19039215
1.0765367 1.1847759 0.18254901
1.0765367 1.1847759 0.17470588
1.0765367 1.1847759 0.16686274
1.0765367 1.1847759 0.1590196
1.0765367 1.1847759 0.15117647
1.0765367 1.1847759 0.14333335
1.0765367 1.1847759 0.13549021
1.0765367 1.1847759 0.12764707
1.0765367 1.1847759 0.11980393
1.0765367 1.1847759 0.11196079
1.0765367 1.1847759 0.10411765
1.0765367 1.1847759 0.09627451
1.0765367 1.1847759 0.088431373
1.0765367 1.1847759 0.080588236
1.0765367 1.1847759 0.0727451
1.0765367 1.1847759 0.064901963
1.0765367 1.1847759 0.057058826
1.0765367 1.1847759 0.049215689
1.0765367 1.1847759 0.041372553
1.0765367 1.1847759 0.033529416
1.0765367 1.1847759 0.025686279
1.0765367 1.1847759 0.017843127
1.111114 1.1662939 0.40215686
1.111114 1.1662939 0.39431372
1.111114 1.1662939 0.38647059
1.111114 1.1662939 0.37862745
1.111114 1.1662939 0.37078431
1.111114 1.1662939 0.36294118
1.111114 1.1662939 0.35509804
1.111114 1.1662939 0.3472549
1.111114 1.1662939 0.33941177
1.111114 1.1662939 0.33156863
1.111114 1.1662939 0.32372549
1.111114 1.1662939 0.31588235
1.111114 1.1662939 0.30803922
1.111114 1.1662939 0.30019608
1.111114 1.1662939 0.29235294
1.111114 1.1662939 0.28450981
1.111114 1.1662939 0.27666667
1.111114 1.1662939 0.26882353
1.111114 1.1662939 0.2609804
1.111114 1.1662939 0.25313726
1.111114 1.1662939 0.24529412
1.111114 1.1662939 0.23745099
1.111114 1.1662939 0.22960785
1.111114 1.1662939 0.22176471
1.111114 1.1662939 0.21392158
1.111114 1.1662939 0.20607844
1.111114 1.1662939 0.1982353
1.111114 1.1662939 0.19039215
1.111114 1.1662939 0.18254901
1.111114 1.1662939 0.17470588
1.111114 1.1662939 0.16686274
1.111114 1.1662939 0.1590196
1.111114 1.1662939 0.15117647
1.111114 1.1662939 0.14333335
1.111114 1.1662939 0.13549021
1.111114 1.1662939 0.12764707
1.111114 1.1662939 0.11980393
1.111114 1.1662939 0.11196079
1.111114 1.1662939 0.10411765
1.111114 1.1662939 0.09627451
1.111114 1.1662939 0.088431373
1.111114 1.1662939 0.080588236
1.111114 1.1662939 0.0727451
1.111114 1.1662939 0.064901963
1.111114 1.1662939 0.057058826
1.111114 1.1662939 0.049215689
1.111114 1.1662939 0.041372553
1.111114 1.1662939 0.033529416
1.111114 1.1662939 0.025686279
1.111114 1.1662939 0.017843127
1.1414213 1.1414213 0.40215686
1.1414213 1.1414213 0.39431372
1.1414213 1.1414213 0.38647059
1.1414213 1.1414213 0.37862745
1.1414213 1.1414213 0.37078431
1.1414213 1.1414213 0.36294118
1.1414213 1.1414213 0.35509804
1.1414213 1.1414213 0.3472549
1.1414213 1.1414213 0.33941177
1.1414213 1.1414213 0.33156863
1.1414213 1.1414213 0.32372549
1.1414213 1.1414213 0.31588235
1.1414213 1.1414213 0.30803922
1.1414213 1.1414213 0.30019608
1.1414213 1.1414213 0.29235294
1.1414213 1.1414213 0.28450981
1.1414213 1.1414213 0.27666667
1.1414213 1.1414213 0.26882353
1.1414213 1.1414213 0.2609804
1.1414213 1.1414213 0.25313726
1.1414213 1.1414213 0.24529412
1.1414213 1.1414213 0.23745099
1.1414213 1.1414213 0.22960785
1.1414213 1.1414213 0.22176471
1.1414213 1.1414213 0.21392158
1.1414213 1.1414213 0.20607844
1.1414213 1.1414213 0.1982353
1.1414213 1.1414213 0.19039215
1.1414213 1.1414213 0.18254901
1.1414213 1.1414213 0.17470588
1.1414213 1.1414213 0.16686274
1.1414213 1.1414213 0.1590196
1.1414213 1.1414213 0.15117647
1.1414213 1.1414213 0.14333335
1.1414213 1.1414213 0.13549021
1.1414213 1.1414213 0.12764707
1.1414213 1.1414213 0.11980393
1.1414213 1.1414213 0.11196079
1.1414213 1.1414213 0.10411765
1.1414213 1.1414213 0.09627451
1.1414213 1.1414213 0.088431373
1.1414213 1.1414213 0.080588236
1.1414213 1.1414213 0.0727451
1.1414213 1.1414213 0.064901963
1.1414213 1.1414213 0.057058826
1.1414213 1.1414213 0.049215689
1.1414213 1.1414213 0.041372553
1.1414213 1.1414213 0.033529416
1.1414213 1.1414213 0.025686279
1.1414213 1.1414213 0.017843127
1.1662939 1.111114 0.40215686
1.1662939 1.111114 0.39431372
1.1662939 1.111114 0.38647059
1.1662939 1.111114 0.37862745
1.1662939 1.111114 0.37078431
1.1662939 1.111114 0.36294118
1.1662939 1.111114 0.35509804
1.1662939 1.111114 0.3472549
1.1662939 1.111114 0.33941177
1.1662939 1.111114 0.33156863
1.1662939 1.111114 0.32372549
1.1662939 1.111114 0.31588235
1.1662939 1.111114 0.30803922
1.1662939 1.111114 0.30019608
1.1662939 1.111114 0.29235294
1.1662939 1.111114 0.28450981
1.1662939 1.111114 0.27666667
1.1662939 1.111114 0.26882353
1.1662939 1.111114 0.2609804
1.1662939 1.111114 0.25313726
1.1662939 1.111114 0.24529412
1.1662939 1.111114 0.23745099
1.1662939 1.111114 0.22960785
1.1662939 1.111114 0.22176471
1.1662939 1.111114 0.21392158
1.1662939 1.111114 0.20607844
1.1662939 1.111114 0.1982353
1.1662939 1.111114 0.19039215
1.1662939 1.111114 0.18254901
1.1662939 1.111114 0.17470588
1.1662939 1.111114 0.16686274
1.1662939 1.111114 0.1590196
1.1662939 1.111114 0.15117647
1.1662939 1.111114 0.14333335
1.1662939 1.111114 0.13549021
1.1662939 1.111114 0.12764707
1.1662939 1.111114 0.11980393
1.1662939 1.111114 0.11196079
1.1662939 1.111114 0.10411765
1.1662939 1.111114 0.09627451
1.1662939 1.111114 0.088431373
1.1662939 1.111114 0.080588236
1.1662939 1.111114 0.0727451
1.1662939 1.111114 0.064901963
1.1662939 1.111114 0.057058826
1.1662939 1.111114 0.049215689
1.1662939 1.111114 0.041372553
1.1662939 1.111114 0.033529416
1.1662939 1.111114 0.025686279
1.1662939 1.111114 0.017843127
1.1847759 1.0765367 0.40215686
1.1847759 1.0765367 0.39431372
1.1847759 1.0765367 0.38647059
1.1847759 1.0765367 0.37862745
1.1847759 1.0765367 0.37078431
1.1847759 1.0765367 0.36294118
1.1847759 1.0765367 0.35509804
1.1847759 1.0765367 0.3472549
1.1847759 1.0765367 0.33941177
1.1847759 1.0765367 0.33156863
1.1847759 1.0765367 0.32372549
1.1847759 1.0765367 0.31588235
1.1847759 1.0765367 0.30803922
1.1847759 1.0765367 0.30019608
1.1847759 1.0765367 0.29235294
1.1847759 1.0765367 0.28450981
1.1847759 1.0765367 0.27666667
1.1847759 1.0765367 0.26882353
1.1847759 1.0765367 0.2609804
1.1847759 1.0765367 0.25313726
1.1847759 1.0765367 0.24529412
1.1847759 1.0765367 0.23745099
1.1847759 1.0765367 0.22960785
1.1847759 1.0765367 0.22176471
1.1847759 1.0765367 0.21392158
1.1847759 1.0765367 0.20607844
1.1847759 1.0765367 0.1982353
1.1847759 1.0765367 0.19039215
1.1847759 1.0765367 0.18254901
1.1847759 1.0765367 0.17470588
1.1847759 1.0765367 0.16686274
1.1847759 1.0765367 0.1590196
1.1847759 1.0765367 0.15117647
1.1847759 1.0765367 0.14333335
1.1847759 1.0765367 0.13549021
1.1847759 1.0765367 0.12764707
1.1847759 1.0765367 0.11980393
1.1847759 1.0765367 0.11196079
1.1847759 1.0765367 0.10411765
1.1847759 1.0765367 0.09627451
1.1847759 1.0765367 0.088431373
1.1847759 1.0765367 0.080588236
1.1847759 1.0765367 0.0727451
1.1847759 1.0765367 0.064901963
1.1847759 1.0765367 0.057058826
1.1847759 1.0765367 0.049215689
1.1847759 1.0765367 0.041372553
1.1847759 1.0765367 0.033529416
1.1847759 1.0765367 0.025686279
1.1847759 1.0765367 0.017843127
1.1961571 1.039018 0.40215686
1.1961571 1.039018 0.39431372
1.1961571 1.039018 0.38647059
1.1961571 1.039018 0.37862745
1.1961571 1.039018 0.37078431
1.1961571 1.039018 0.36294118
1.1961571 1.039018 0.35509804
1.1961571 1.039018 0.3472549
1.1961571 1.039018 0.33941177
1.1961571 1.039018 0.33156863
1.1961571 1.039018 0.32372549
1.1961571 1.039018 0.31588235
1.1961571 1.039018 0.30803922
1.1961571 1.039018 0.30019608
1.1961571 1.039018 0.29235294
1.1961571 1.039018 0.28450981
1.1961571 1.039018 0.27666667
1.1961571 1.039018 0.26882353
1.1961571 1.039018 0.2609804
1.1961571 1.039018 0.25313726
1.1961571 1.039018 0.24529412
1.1961571 1.039018 0.23745099
1.1961571 1.039018 0.22960785
1.1961571 1.039018 0.22176471
1.1961571 1.039018 0.21392158
1.1961571 1.039018 0.20607844
1.1961571 1.039018 0.1982353
1.1961571 1.039018 0.19039215
1.1961571 1.039018 0.18254901
1.1961571 1.039018 0.17470588
1.1961571 1.039018 0.16686274
1.1961571 1.039018 0.1590196
1.1961571 1.039018 0.15117647
1.1961571 1.039018 0.14333335
1.1961571 1.039018 0.13549021
1.1961571 1.039018 0.12764707
1.1961571 1.039018 0.11980393
1.1961571 1.039018 0.11196079
1.1961571 1.039018 0.10411765
1.1961571 1.039018 0.09627451
1.1961571 1.039018 0.088431373
1.1961571 1.039018 0.080588236
1.1961571 1.039018 0.0727451
1.1961571 1.039018 0.064901963
1.1961571 1.039018 0.057058826
1.1961571 1.039018 0.049215689
1.1961571 1.039018 0.041372553
1.1961571 1.039018 0.033529416
1.1961571 1.039018 0.025686279
1.1961571 1.039018 0.017843127
1.2 1 0.40215686
1.2 1 0.39431372
1.2 1 0.38647059
1.2 1 0.37862745
1.2 1 0.37078431
1.2 1 0.36294118
1.2 1 0.35509804
1.2 1 0.3472549
1.2 1 0.33941177
1.2 1 0.33156863
1.2 1 0.32372549
1.2 1 0.31588235
1.2 1 0.30803922
1.2 1 0.30019608
1.2 1 0.29235294
1.2 1 0.28450981
1.2 1 0.27666667
1.2 1 0.26882353
1.2 1 0.2609804
1.2 1 0.25313726
1.2 1 0.24529412
1.2 1 0.23745099
1.2 1 0.22960785
1.2 1 0.22176471
1.2 1 0.21392158
1.2 1 0.20607844
1.2 1 0.1982353
1.2 1 0.19039215
1.2 1 0.18254901
1.2 1 0.17470588
1.2 1 0.16686274
1.2 1 0.1590196
1.2 1 0.15117647
1.2 1 0.14333335
1.2 1 0.13549021
1.2 1 0.12764707
1.2 1 0.11980393
1.2 1 0.11196079
1.2 1 0.10411765
1.2 1 0.09627451
1.2 1 0.088431373
1.2 1 0.080588236
1.2 1 0.0727451
1.2 1 0.064901963
1.2 1 0.057058826
1.2 1 0.049215689
1.2 1 0.041372553
1.2 1 0.033529416
1.2 1 0.025686279
1.2 1 0.017843127
1.1961571 0.96098197 0.40215686
1.1961571 0.96098197 0.39431372
1.1961571 0.96098197 0.38647059
1.1961571 0.96098197 0.37862745
1.1961571 0.96098197 0.37078431
1.1961571 0.96098197 0.36294118
1.1961571 0.96098197 0.35509804
1.1961571 0.96098197 0.3472549
1.1961571 0.96098197 0.33941177
1.1961571 0.96098197 0.33156863
1.1961571 0.96098197 0.32372549
1.1961571 0.96098197 0.31588235
1.1961571 0.96098197 0.30803922
1.1961571 0.96098197 0.30019608
1.1961571 0.96098197 0.29235294
1.1961571 0.96098197 0.28450981
1.1961571 0.96098197 0.27666667
1.1961571 0.96098197 0.26882353
1.1961571 0.96098197 0.2609804
1.1961571 0.96098197 0.25313726
1.1961571 0.96098197 0.24529412
1.1961571 0.96098197 0.23745099
1.1961571 0.96098197 0.22960785
1.1961571 0.96098197 0.22176471
1.1961571 0.96098197 0.21392158
1.1961571 0.96098197 0.20607844
1.1961571 0.96098197 0.1982353
1.1961571 0.96098197 0.19039215
1.1961571 0.96098197 0.18254901
1.1961571 0.96098197 0.17470588
1.1961571 0.96098197 0.16686274
1.1961571 0.96098197 0.1590196
1.1961571 0.96098197 0.15117647
1.1961571 0.96098197 0.14333335
1.1961571 0.96098197 0.13549021
1.1961571 0.96098197 0.12764707
1.1961571 0.96098197 0.11980393
1.1961571 0.96098197 0.11196079
1.1961571 0.96098197 0.10411765
1.1961571 0.96098197 0.09627451
1.1961571 0.96098197 0.088431373
1.1961571 0.96098197 0.080588236
1.1961571 0.96098197 0.0727451
1.1961571 0.96098197 0.064901963
1.1961571 0.96098197 0.057058826
1.1961571 0.96098197 0.049215689
1.1961571 0.96098197 0.041372553
1.1961571 0.96098197 0.033529416
1.1961571 0.96098197 0.025686279
1.1961571 0.96098197 0.017843127
1.1847759 0.92346334 0.40215686
1.1847759 0.92346334 0.39431372
1.1847759 0.92346334 0.38647059
1.1847759 0.92346334 0.37862745
1.1847759 0.92346334 0.37078431
1.1847759 0.92346334 0.36294118
1.1847759 0.92346334 0.35509804
1.1847759 0.92346334 0.3472549
1.1847759 0.92346334 0.33941177
1.1847759 0.92346334 0.33156863
1.1847759 0.92346334 0.32372549
1.1847759 0.92346334 0.31588235
1.1847759 0.92346334 0.30803922
1.1847759 0.92346334 0.30019608
1.1847759 0.92346334 0.29235294
1.1847759 0.92346334 0.28450981
1.1847759 0.92346334 0.27666667
1.1847759 0.92346334 0.26882353
1.1847759 0.92346334 0.2609804
1.1847759 0.92346334 0.25313726
1.1847759 0.92346334 0.24529412
1.1847759 0.92346334 0.23745099
1.1847759 0.92346334 0.22960785
1.1847759 0.92346334 0.22176471
1.1847759 0.92346334 0.21392158
1.1847759 0.92346334 0.20607844
1.1847759 0.92346334 0.1982353
1.1847759 0.92346334 0.19039215
1.1847759 0.92346334 0.18254901
1.1847759 0.92346334 0.17470588
1.1847759 0.92346334 0.16686274
1.1847759 0.92346334 0.1590196
1.1847759 0.92346334 0.15117647
1.1847759 0.92346334 0.14333335
1.1847759 0.92346334 0.13549021
1.1847759 0.92346334 0.12764707
1.1847759 0.92346334 0.11980393
1.1847759 0.92346334 0.11196079
1.1847759 0.92346334 0.10411765
1.1847759 0.92346334 0.09627451
1.1847759 0.92346334 0.088431373
1.1847759 0.92346334 0.080588236
1.1847759 0.92346334 0.0727451
1.1847759 0.92346334 0.064901963
1.1847759 0.92346334 0.057058826
1.1847759 0.92346334 0.049215689
1.1847759 0.92346334 0.041372553
1.1847759 0.92346334 0.033529416
1.1847759 0.92346334 0.025686279
1.1847759 0.92346334 0.017843127
1.166294 0.88888597 0.40215686
1.166294 0.88888597 0.39431372
1.166294 0.88888597 0.38647059
1.166294 0.88888597 0.37862745
1.166294 0.88888597 0.37078431
1.166294 0.88888597 0.36294118
1.166294 0.88888597 0.35509804
1.166294 0.88888597 0.3472549
1.166294 0.88888597 0.33941177
1.166294 0.88888597 0.33156863
1.166294 0.88888597 0.32372549
1.166294 0.88888597 0.31588235
1.166294 0.88888597 0.30803922
1.166294 0.88888597 0.30019608
1.166294 0.88888597 0.29235294
1.166294 0.88888597 0.28450981
1.166294 0.88888597 0.27666667
1.166294 0.88888597 0.26882353
1.166294 0.88888597 0.2609804
1.166294 0.88888597 0.25313726
1.166294 0.88888597 0.24529412
1.166294 0.88888597 0.23745099
1.166294 0.88888597 0.22960785
1.166294 0.88888597 0.22176471
1.166294 0.88888597 0.21392158
1.166294 0.88888597 0.20607844
1.166294 0.88888597 0.1982353
1.166294 0.88888597 0.19039215
1.166294 0.88888597 0.18254901
1.166294 0.88888597 0.17470588
1.166294 0.88888597 0.16686274
1.166294 0.88888597 0.1590196
1.166294 0.88888597 0.15117647
1.166294 0.88888597 0.14333335
1.166294 0.88888597 0.13549021
1.166294 0.88888597 0.12764707
1.166294 0.88888597 0.11980393
1.166294 0.88888597 0.11196079
1.166294 0.88888597 0.10411765
1.166294 0.88888597 0.09627451
1.166294 0.88888597 0.088431373
1.166294 0.88888597 0.080588236
1.166294 0.88888597 0.0727451
1.166294 0.88888597 0.064901963
1.166294 0.88888597 0.057058826
1.166294 0.88888597 0.049215689
1.166294 0.88888597 0.041372553
1.166294 0.88888597 0.033529416
1.166294 0.88888597 0.025686279
1.166294 0.88888597 0.017843127
1.1414213 0.85857862 0.40215686
1.1414213 0.85857862 0.39431372
1.1414213 0.85857862 0.38647059
1.1414213 0.85857862 0.37862745
1.1414213 0.85857862 0.37078431
1.1414213 0.85857862 0.36294118
1.1414213 0.85857862 0.35509804
1.1414213 0.85857862 0.3472549
1.1414213 0.85857862 0.33941177
1.1414213 0.85857862 0.33156863
1.1414213 0.85857862 0.32372549
1.1414213 0.85857862 0.31588235
1.1414213 0.85857862 0.30803922
1.1414213 0.85857862 0.30019608
1.1414213 0.85857862 0.29235294
1.1414213 0.85857862 0.28450981
1.1414213 0.85857862 0.27666667
1.1414213 0.85857862 0.26882353
1.1414213 0.85857862 0.2609804
1.1414213 0.85857862 0.25313726
1.1414213 0.85857862 0.24529412
1.1414213 0.85857862 0.23745099
1.1414213 0.85857862 0.22960785
1.1414213 0.85857862 0.22176471
1.1414213 0.85857862 0.21392158
1.1414213 0.85857862 0.20607844
1.1414213 0.85857862 0.1982353
1.1414213 0.85857862 0.19039215
1.1414213 0.85857862 0.18254901
1.1414213 0.85857862 0.17470588
1.1414213 0.85857862 0.16686274
1.1414213 0.85857862 0.1590196
1.1414213 0.85857862 0.15117647
1.1414213 0.85857862 0.14333335
1.1414213 0.85857862 0.13549021
1.1414213 0.85857862 0.12764707
1.1414213 0.85857862 0.11980393
1.1414213 0.85857862 0.11196079
1.1414213 0.85857862 0.10411765
1.1414213 0.85857862 0.09627451
1.1414213 0.85857862 0.088431373
1.1414213 0.85857862 0.080588236
1.1414213 0.85857862 0.0727451
1.1414213 0.85857862 0.064901963
1.1414213 0.85857862 0.057058826
1.1414213 0.85857862 0.049215689
1.1414213 0.85857862 0.041372553
1.1414213 0.85857862 0.033529416
1.1414213 0.85857862 0.025686279
1.1414213 0.85857862 0.017843127
1.111114 0.83370608 0.40215686
1.111114 0.83370608 0.39431372
1.111114 0.83370608 0.38647059
1.111114 0.83370608 0.37862745
1.111114 0.83370608 0.37078431
1.111114 0.83370608 0.36294118
1.111114 0.83370608 0.35509804
1.111114 0.83370608 0.3472549
1.111114 0.83370608 0.33941177
1.111114 0.83370608 0.33156863
1.111114 0.83370608 0.32372549
1.111114 0.83370608 0.31588235
1.111114 0.83370608 0.30803922
1.111114 0.83370608 0.30019608
1.111114 0.83370608 0.29235294
1.111114 0.83370608 0.28450981
1.111114 0.83370608 0.27666667
1.111114 0.83370608 0.26882353
1.111114 0.83370608 0.2609804
1.111114 0.83370608 0.25313726
1.111114 0.83370608 0.24529412
1.111114 0.83370608 0.23745099
1.111114 0.83370608 0.22960785
1.111114 0.83370608 0.22176471
1.111114 0.83370608 0.21392158
1.111114 0.83370608 0.20607844
1.111114 0.83370608 0.1982353
1.111114 0.83370608 0.19039215
1.111114 0.83370608 0.18254901
1.111114 0.83370608 0.17470588
1.111114 0.83370608 0.16686274
1.111114 0.83370608 0.1590196
1.111114 0.83370608 0.15117647
1.111114 0.83370608 0.14333335
1.111114 0.83370608 0.13549021
1.111114 0.83370608 0.12764707
1.111114 0.83370608 0.11980393
1.111114 0.83370608 0.11196079
1.111114 0.83370608 0.10411765
1.111114 0.83370608 0.09627451
1.111114 0.83370608 0.088431373
1.111114 0.83370608 0.080588236
1.111114 0.83370608 0.0727451
1.111114 0.83370608 0.064901963
1.111114 0.83370608 0.057058826
1.111114 0.83370608 0.049215689
1.111114 0.83370608 0.041372553
1.111114 0.83370608 0.033529416
1.111114 0.83370608 0.025686279
1.111114 0.83370608 0.017843127
1.0765367 0.81522411 0.40215686
1.0765367 0.81522411 0.39431372
1.0765367 0.81522411 0.38647059
1.0765367 0.81522411 0.37862745
1.0765367 0.81522411 0.37078431
1.0765367 0.81522411 0.36294118
1.0765367 0.81522411 0.35509804
1.0765367 0.81522411 0.3472549
1.0765367 0.81522411 0.33941177
1.0765367 0.81522411 0.33156863
1.0765367 0.81522411 0.32372549
1.0765367 0.81522411 0.31588235
1.0765367 0.81522411 0.30803922
1.0765367 0.81522411 0.30019608
1.0765367 0.81522411 0.29235294
1.0765367 0.81522411 0.28450981
1.0765367 0.81522411 0.27666667
1.0765367 0.81522411 0.26882353
1.0765367 0.81522411 0.2609804
1.0765367 0.81522411 0.25313726
1.0765367 0.81522411 0.24529412
1.0765367 0.81522411 0.23745099
1.0765367 0.81522411 0.22960785
1.0765367 0.81522411 0.22176471
1.0765367 0.81522411 0.21392158
1.0765367 0.81522411 0.20607844
1.0765367 0.81522411 0.1982353
1.0765367 0.81522411 0.19039215
1.0765367 0.81522411 0.18254901
1.0765367 0.81522411 0.17470588
1.0765367 0.81522411 0.16686274
1.0765367 0.81522411 0.1590196
1.0765367 0.81522411 0.15117647
1.0765367 0.81522411 0.14333335
1.0765367 0.81522411 0.13549021
1.0765367 0.81522411 0.12764707
1.0765367 0.81522411 0.11980393
1.0765367 0.81522411 0.11196079
1.0765367 0.81522411 0.10411765
1.0765367 0.81522411 0.09627451
1.0765367 0.81522411 0.088431373
1.0765367 0.81522411 0.080588236
1.0765367 0.81522411 0.0727451
1.0765367 0.81522411 0.064901963
1.0765367 0.81522411 0.057058826
1.0765367 0.81522411 0.049215689
1.0765367 0.81522411 0.041372553
1.0765367 0.81522411 0.033529416
1.0765367 0.81522411 0.025686279
1.0765367 0.81522411 0.017843127
1.039018 0.8038429 0.40215686
1.039018 0.8038429 0.39431372
1.039018 0.8038429 0.38647059
1.039018 0.8038429 0.37862745
1.039018 0.8038429 0.37078431
1.039018 0.8038429 0.36294118
1.039018 0.8038429 0.35509804
1.039018 0.8038429 0.3472549
1.039018 0.8038429 0.33941177
1.039018 0.8038429 0.33156863
1.039018 0.8038429 0.32372549
1.039018 0.8038429 0.31588235
1.039018 0.8038429 0.30803922
1.039018 0.8038429 0.30019608
1.039018 0.8038429 0.29235294
1.039018 0.8038429 0.28450981
1.039018 0.8038429 0.27666667
1.039018 0.8038429 0.26882353
1.039018 0.8038429 0.2609804
1.039018 0.8038429 0.25313726
1.039018 0.8038429 0.24529412
1.039018 0.8038429 0.23745099
1.039018 0.8038429 0.22960785
1.039018 0.8038429 0.22176471
1.039018 0.8038429 0.21392158
1.039018 0.8038429 0.20607844
1.039018 0.8038429 0.1982353
1.039018 0.8038429 0.19039215
1.039018 0.8038429 0.18254901
1.039018 0.8038429 0.17470588
1.039018 0.8038429 0.16686274
1.039018 0.8038429 0.1590196
1.039018 0.8038429 0.15117647
1.039018 0.8038429 0.14333335
1.039018 0.8038429 0.13549021
1.039018 0.8038429 0.12764707
1.039018 0.8038429 0.11980393
1.039018 0.8038429 0.11196079
1.039018 0.8038429 0.10411765
1.039018 0.8038429 0.09627451
1.039018 0.8038429 0.088431373
1.039018 0.8038429 0.080588236
1.039018 0.8038429 0.0727451
1.039018 0.8038429 0.064901963
1.039018 0.8038429 0.057058826
1.039018 0.8038429 0.049215689
1.039018 0.8038429 0.041372553
1.039018 0.8038429 0.033529416
1.039018 0.8038429 0.025686279
1.039018 0.8038429 0.017843127
1 0.80000001 0.40215686
1 0.80000001 0.39431372
1 0.80000001 0.38647059
1 0.80000001 0.37862745
1 0.80000001 0.37078431
1 0.80000001 0.36294118
1 0.80000001 0.35509804
1 0.80000001 0.3472549
1 0.80000001 0.33941177
1 0.80000001 0.33156863
1 0.80000001 0.32372549
1 0.80000001 0.31588235
1 0.80000001 0.30803922
1 0.80000001 0.30019608
1 0.80000001 0.29235294
1 0.80000001 0.28450981
1 0.80000001 0.27666667
1 0.80000001 0.26882353
1 0.80000001 0.2609804
1 0.80000001 0.25313726
1 0.80000001 0.24529412
1 0.80000001 0.23745099
1 0.80000001 0.22960785
1 0.80000001 0.22176471
1 0.80000001 0.21392158
1 0.80000001 0.20607844
1 0.80000001 0.1982353
1 0.80000001 0.19039215
1 0.80000001 0.18254901
1 0.80000001 0.17470588
1 0.80000001 0.16686274
1 0.80000001 0.1590196
1 0.80000001 0.15117647
1 0.80000001 0.14333335
1 0.80000001 0.13549021
1 0.80000001 0.12764707
1 0.80000001 0.11980393
1 0.80000001 0.11196079
1 0.80000001 0.10411765
1 0.80000001 0.09627451
1 0.80000001 0.088431373
1 0.80000001 0.080588236
1 0.80000001 0.0727451
1 0.80000001 0.064901963
1 0.80000001 0.057058826
1 0.80000001 0.049215689
1 0.80000001 0.041372553
1 0.80000001 0.033529416
1 0.80000001 0.025686279
1 0.80000001 0.017843127
0.96098197 0.8038429 0.40215686
0.96098197 0.8038429 0.39431372
0.96098197 0.8038429 0.38647059
0.96098197 0.8038429 0.37862745
0.96098197 0.8038429 0.37078431
0.96098197 0.8038429 0.36294118
0.96098197 0.8038429 0.35509804
0.96098197 0.8038429 0.3472549
0.96098197 0.8038429 0.33941177
0.96098197 0.8038429 0.33156863
0.96098197 0.8038429 0.32372549
0.96098197 0.8038429 0.31588235
0.96098197 0.8038429 0.30803922
0.96098197 0.8038429 0.30019608
0.96098197 0.8038429 0.29235294
0.96098197 0.8038429 0.28450981
0.96098197 0.8038429 0.27666667
0.96098197 0.8038429 0.26882353
0.96098197 0.8038429 0.2609804
0.96098197 0.8038429 0.25313726
0.96098197 0.8038429 0.24529412
0.96098197 0.8038429 0.23745099
0.96098197 0.8038429 0.22960785
0.96098197 0.8038429 0.22176471
0.96098197 0.8038429 0.21392158
0.96098197 0.8038429 0.20607844
0.96098197 0.8038429 0.1982353
0.96098197 0.8038429 0.19039215
0.96098197 0.8038429 0.18254901
0.96098197 0.8038429 0.17470588
0.96098197 0.8038429 0.16686274
0.96098197 0.8038429 0.1590196
0.96098197 0.8038429 0.15117647
0.96098197 0.8038429 0.14333335
0.96098197 0.8038429 0.13549021
0.96098197 0.8038429 0.12764707
0.96098197 0.8038429 0.11980393
0.96098197 0.8038429 0.11196079
0.96098197 0.8038429 0.10411765
0.96098197 0.8038429 0.09627451
0.96098197 0.8038429 0.088431373
0.96098197 0.8038429 0.080588236
0.96098197 0.8038429 0.0727451
0.96098197 0.8038429 0.064901963
0.96098197 0.8038429 0.057058826
0.96098197 0.8038429 0.049215689
0.96098197 0.8038429 0.041372553
0.96098197 0.8038429 0.033529416
0.96098197 0.8038429 0.025686279
0.96098197 0.8038429 0.017843127
0.92346334 0.81522411 0.40215686
0.92346334 0.81522411 0.39431372
0.92346334 0.81522411 0.38647059
0.92346334 0.81522411 0.37862745
0.92346334 0.81522411 0.37078431
0.92346334 0.81522411 0.36294118
0.92346334 0.81522411 0.35509804
0.92346334 0.81522411 0.3472549
0.92346334 0.81522411 0.33941177
0.92346334 0.81522411 0.33156863
0.92346334 0.81522411 0.32372549
0.92346334 0.81522411 0.31588235
0.92346334 0.81522411 0.30803922
0.92346334 0.81522411 0.30019608
0.92346334 0.81522411 0.29235294
0.92346334 0.81522411 0.28450981
0.92346334 0.81522411 0.27666667
0.92346334 0.81522411 0.26882353
0.92346334 0.81522411 0.2609804
0.92346334 0.81522411 0.25313726
0.92346334 0.81522411 0.24529412
0.92346334 0.81522411 0.23745099
0.92346334 0.81522411 0.22960785
0.92346334 0.81522411 0.22176471
0.92346334 0.81522411 0.21392158
0.92346334 0.81522411 0.20607844
0.92346334 0.81522411 0.1982353
0.92346334 0.81522411 0.19039215
0.92346334 0.81522411 0.18254901
0.92346334 0.81522411 0.17470588
0.92346334 0.81522411 0.16686274
0.92346334 0.81522411 0.1590196
0.92346334 0.81522411 0.15117647
0.92346334 0.81522411 0.14333335
0.92346334 0.81522411 0.13549021
0.92346334 0.81522411 0.12764707
0.92346334 0.81522411 0.11980393
0.92346334 0.81522411 0.11196079
0.92346334 0.81522411 0.10411765
0.92346334 0.81522411 0.09627451
0.92346334 0.81522411 0.088431373
0.92346334 0.81522411 0.080588236
0.92346334 0.81522411 0.0727451
0.92346334 0.81522411 0.064901963
0.92346334 0.81522411 0.057058826
0.92346334 0.81522411 0.049215689
0.92346334 0.81522411 0.041372553
0.92346334 0.81522411 0.033529416
0.92346334 0.81522411 0.025686279
0.92346334 0.81522411 0.017843127
0.88888592 0.83370608 0.40215686
0.88888592 0.83370608 0.39431372
0.88888592 0.83370608 0.38647059
0.88888592 0.83370608 0.37862745
0.88888592 0.83370608 0.37078431
0.88888592 0.83370608 0.36294118
0.88888592 0.83370608 0.35509804
0.88888592 0.83370608 0.3472549
0.88888592 0.83370608 0.33941177
0.88888592 0.83370608 0.33156863
0.88888592 0.83370608 0.32372549
0.88888592 0.83370608 0.31588235
0.88888592 0.83370608 0.30803922
0.88888592 0.83370608 0.30019608
0.88888592 0.83370608 0.29235294
0.88888592 0.83370608 0.28450981
0.88888592 0.83370608 0.27666667
0.88888592 0.83370608 0.26882353
0.88888592 0.83370608 0.2609804
0.88888592 0.83370608 0.25313726
0.88888592 0.83370608 0.24529412
0.88888592 0.83370608 0.23745099
0.88888592 0.83370608 0.22960785
0.88888592 0.83370608 0.22176471
0.88888592 0.83370608 0.21392158
0.88888592 0.83370608 0.20607844
0.88888592 0.83370608 0.1982353
0.88888592 0.83370608 0.19039215
0.88888592 0.83370608 0.18254901
0.88888592 0.83370608 0.17470588
0.88888592 0.83370608 0.16686274
0.88888592 0.83370608 0.1590196
0.88888592 0.83370608 0.15117647
0.88888592 0.83370608 0.14333335
0.88888592 0.83370608 0.13549021
0.88888592 0.83370608 0.12764707
0.88888592 0.83370608 0.11980393
0.88888592 0.83370608 0.11196079
0.88888592 0.83370608 0.10411765
0.88888592 0.83370608 0.09627451
0.88888592 0.83370608 0.088431373
0.88888592 0.83370608 0.080588236
0.88888592 0.83370608 0.0727451
0.88888592 0.83370608 0.064901963
0.88888592 0.83370608 0.057058826
0.88888592 0.83370608 0.049215689
0.88888592 0.83370608 0.041372553
0.88888592 0.83370608 0.033529416
0.88888592 0.83370608 0.025686279
0.88888592 0.83370608 0.017843127
0.85857868 0.85857862 0.40215686
0.85857868 0.85857862 0.39431372
0.85857868 0.85857862 0.38647059
0.85857868 0.85857862 0.37862745
0.85857868 0.85857862 0.37078431
0.85857868 0.85857862 0.36294118
0.85857868 0.85857862 0.35509804
0.85857868 0.85857862 0.3472549
0.85857868 0.85857862 0.33941177
0.85857868 0.85857862 0.33156863
0.85857868 0.85857862 0.32372549
0.85857868 0.85857862 0.31588235
0.85857868 0.85857862 0.30803922
0.85857868 0.85857862 0.30019608
0.85857868 0.85857862 0.29235294
0.85857868 0.85857862 0.28450981
0.85857868 0.85857862 0.27666667
0.85857868 0.85857862 0.26882353
0.85857868 0.85857862 0.2609804
0.85857868 0.85857862 0.25313726
0.85857868 0.85857862 0.24529412
0.85857868 0.85857862 0.23745099
0.85857868 0.85857862 0.22960785
0.85857868 0.85857862 0.22176471
0.85857868 0.85857862 0.21392158
0.85857868 0.85857862 0.20607844
0.85857868 0.85857862 0.1982353
0.85857868 0.85857862 0.19039215
0.85857868 0.85857862 0.18254901
0.85857868 0.85857862 0.17470588
0.85857868 0.85857862 0.16686274
0.85857868 0.85857862 0.1590196
0.85857868 0.85857862 0.15117647
0.85857868 0.85857862 0.14333335
0.85857868 0.85857862 0.13549021
0.85857868 0.85857862 0.12764707
0.85857868 0.85857862 0.11980393
0.85857868 0.85857862 0.11196079
0.85857868 0.85857862 0.10411765
0.85857868 0.85857862 0.09627451
0.85857868 0.85857862 0.088431373
0.85857868 0.85857862 0.080588236
0.85857868 0.85857862 0.0727451
0.85857868 0.85857862 0.064901963
0.85857868 0.85857862 0.057058826
0.85857868 0.85857862 0.049215689
0.85857868 0.85857862 0.041372553
0.85857868 0.85857862 0.033529416
0.85857868 0.85857862 0.025686279
0.85857868 0.85857862 0.017843127
0.83370608 0.88888592 0.40215686
0.83370608 0.88888592 0.39431372
0.83370608 0.88888592 0.38647059
0.83370608 0.88888592 0.37862745
0.83370608 0.88888592 0.37078431
0.83370608 0.88888592 0.36294118
0.83370608 0.88888592 0.35509804
0.83370608 0.88888592 0.3472549
0.83370608 0.88888592 0.33941177
0.83370608 0.88888592 0.33156863
0.83370608 0.88888592 0.32372549
0.83370608 0.88888592 0.31588235
0.83370608 0.88888592 0.30803922
0.83370608 0.88888592 0.30019608
0.83370608 0.88888592 0.29235294
0.83370608 0.88888592 0.28450981
0.83370608 0.88888592 0.27666667
0.83370608 0.88888592 0.26882353
0.83370608 0.88888592 0.2609804
0.83370608 0.88888592 0.25313726
0.83370608 0.88888592 0.24529412
0.83370608 0.88888592 0.23745099
0.83370608 0.88888592 0.22960785
0.83370608 0.88888592 0.22176471
0.83370608 0.88888592 0.21392158
0.83370608 0.88888592 0.20607844
0.83370608 0.88888592 0.1982353
0.83370608 0.88888592 0.19039215
0.83370608 0.88888592 0.18254901
0.83370608 0.88888592 0.17470588
0.83370608 0.88888592 0.16686274
0.83370608 0.88888592 0.1590196
0.83370608 0.88888592 0.15117647
0.83370608 0.88888592 0.14333335
0.83370608 0.88888592 0.13549021
0.83370608 0.88888592 0.12764707
0.83370608 0.88888592 0.11980393
0.83370608 0.88888592 0.11196079
0.83370608 0.88888592 0.10411765
0.83370608 0.88888592 0.09627451
0.83370608 0.88888592 0.088431373
0.83370608 0.88888592 0.080588236
0.83370608 0.88888592 0.0727451
0.83370608 0.88888592 0.064901963
0.83370608 0.88888592 0.057058826
0.83370608 0.88888592 0.049215689
0.83370608 0.88888592 0.041372553
0.83370608 0.88888592 0.033529416
0.83370608 0.88888592 0.025686279
0.83370608 0.88888592 0.017843127
0.81522411 0.92346328 0.40215686
0.81522411 0.92346328 0.39431372
0.81522411 0.92346328 0.38647059
0.81522411 0.92346328 0.37862745
0.81522411 0.92346328 0.37078431
0.81522411 0.92346328 0.36294118
0.81522411 0.92346328 0.35509804
0.81522411 0.92346328 0.3472549
0.81522411 0.92346328 0.33941177
0.81522411 0.92346328 0.33156863
0.81522411 0.92346328 0.32372549
0.81522411 0.92346328 0.31588235
0.81522411 0.92346328 0.30803922
0.81522411 0.92346328 0.30019608
0.81522411 0.92346328 0.29235294
0.81522411 0.92346328 0.28450981
0.81522411 0.92346328 0.27666667
0.81522411 0.92346328 0.26882353
0.81522411 0.92346328 0.2609804
0.81522411 0.92346328 0.25313726
0.81522411 0.92346328 0.24529412
0.81522411 0.92346328 0.23745099
0.81522411 0.92346328 0.22960785
0.81522411 0.92346328 0.22176471
0.81522411 0.92346328 0.21392158
0.81522411 0.92346328 0.20607844
0.81522411 0.92346328 0.1982353
0.81522411 0.92346328 0.19039215
0.81522411 0.92346328 0.18254901
0.81522411 0.92346328 0.17470588
0.81522411 0.92346328 0.16686274
0.81522411 0.92346328 0.1590196
0.81522411 0.92346328 0.15117647
0.81522411 0.92346328 0.14333335
0.81522411 0.92346328 0.13549021
0.81522411 0.92346328 0.12764707
0.81522411 0.92346328 0.11980393
0.81522411 0.92346328 0.11196079
0.81522411 0.92346328 0.10411765
0.81522411 0.92346328 0.09627451
0.81522411 0.92346328 0.088431373
0.81522411 0.92346328 0.080588236
0.81522411 0.92346328 0.0727451
0.81522411 0.92346328 0.064901963
0.81522411 0.92346328 0.057058826
0.81522411 0.92346328 0.049215689
0.81522411 0.92346328 0.041372553
0.81522411 0.92346328 0.033529416
0.81522411 0.92346328 0.025686279
0.81522411 0.92346328 0.017843127
0.80384296 0.96098191 0.40215686
0.80384296 0.96098191 0.39431372
0.80384296 0.96098191 0.38647059
0.80384296 0.96098191 0.37862745
0.80384296 0.96098191 0.37078431
0.80384296 0.96098191 0.36294118
0.80384296 0.96098191 0.35509804
0.80384296 0.96098191 0.3472549
0.80384296 0.96098191 0.33941177
0.80384296 0.96098191 0.33156863
0.80384296 0.96098191 0.32372549
0.80384296 0.96098191 0.31588235
0.80384296 0.96098191 0.30803922
0.80384296 0.96098191 0.30019608
0.80384296 0.96098191 0.29235294
0.80384296 0.96098191 0.28450981
0.80384296 0.96098191 0.27666667
0.80384296 0.96098191 0.26882353
0.80384296 0.96098191 0.2609804
0.80384296 0.96098191 0.25313726
0.80384296 0.96098191 0.24529412
0.80384296 0.96098191 0.23745099
0.80384296 0.96098191 0.22960785
0.80384296 0.96098191 0.22176471
0.80384296 0.96098191 0.21392158
0.80384296 0.96098191 0.20607844
0.80384296 0.96098191 0.1982353
0.80384296 0.96098191 0.19039215
0.80384296 0.96098191 0.18254901
0.80384296 0.96098191 0.17470588
0.80384296 0.96098191 0.16686274
0.80384296 0.96098191 0.1590196
0.80384296 0.96098191 0.15117647
0.80384296 0.96098191 0.14333335
0.80384296 0.96098191 0.13549021
0.80384296 0.96098191 0.12764707
0.80384296 0.96098191 0.11980393
0.80384296 0.96098191 0.11196079
0.80384296 0.96098191 0.10411765
0.80384296 0.96098191 0.09627451
0.80384296 0.96098191 0.088431373
0.80384296 0.96098191 0.080588236
0.80384296 0.96098191 0.0727451
0.80384296 0.96098191 0.064901963
0.80384296 0.96098191 0.057058826
0.80384296 0.96098191 0.049215689
0.80384296 0.96098191 0.041372553
0.80384296 0.96098191 0.033529416
0.80384296 0.96098191 0.025686279
0.80384296 0.96098191 0.017843127
0.80000001 1 0.40215686
0.80000001 1 0.39431372
0.80000001 1 0.38647059
0.80000001 1 0.37862745
0.80000001 1 0.37078431
0.80000001 1 0.36294118
0.80000001 1 0.35509804
0.80000001 1 0.3472549
0.80000001 1 0.33941177
0.80000001 1 0.33156863
0.80000001 1 0.32372549
0.80000001 1 0.31588235
0.80000001 1 0.30803922
0.80000001 1 0.30019608
0.80000001 1 0.29235294
0.80000001 1 0.28450981
0.80000001 1 0.27666667
0.80000001 1 0.26882353
0.80000001 1 0.2609804
0.80000001 1 0.25313726
0.80000001 1 0.24529412
0.80000001 1 0.23745099
0.80000001 1 0.22960785
0.80000001 1 0.22176471
0.80000001 1 0.21392158
0.80000001 1 0.20607844
0.80000001 1 0.1982353
0.80000001 1 0.19039215
0.80000001 1 0.18254901
0.80000001 1 0.17470588
0.80000001 1 0.16686274
0.80000001 1 0.1590196
0.80000001 1 0.15117647
0.80000001 1 0.14333335
0.80000001 1 0.13549021
0.80000001 1 0.12764707
0.80000001 1 0.11980393
0.80000001 1 0.11196079
0.80000001 1 0.10411765
0.80000001 1 0.09627451
0.80000001 1 0.088431373
0.80000001 1 0.080588236
0.80000001 1 0.0727451
0.80000001 1 0.064901963
0.80000001 1 0.057058826
0.80000001 1 0.049215689
0.80000001 1 0.041372553
0.80000001 1 0.033529416
0.80000001 1 0.025686279
0.80000001 1 0.017843127
0.80384296 1.039018 0.40215686
0.80384296 1.039018 0.39431372
0.80384296 1.039018 0.38647059
0.80384296 1.039018 0.37862745
0.80384296 1.039018 0.37078431
0.80384296 1.039018 0.36294118
0.80384296 1.039018 0.35509804
0.80384296 1.039018 0.3472549
0.80384296 1.039018 0.33941177
0.80384296 1.039018 0.33156863
0.80384296 1.039018 0.32372549
0.80384296 1.039018 0.31588235
0.80384296 1.039018 0.30803922
0.80384296 1.039018 0.30019608
0.80384296 1.039018 0.29235294
0.80384296 1.039018 0.28450981
0.80384296 1.039018 0.27666667
0.80384296 1.039018 0.26882353
0.80384296 1.039018 0.2609804
0.80384296 1.039018 0.25313726
0.80384296 1.039018 0.24529412
0.80384296 1.039018 0.23745099
0.80384296 1.039018 0.22960785
0.80384296 1.039018 0.22176471
0.80384296 1.039018 0.21392158
0.80384296 1.039018 0.20607844
0.80384296 1.039018 0.1982353
0.80384296 1.039018 0.19039215
0.80384296 1.039018 0.18254901
0.80384296 1.039018 0.17470588
0.80384296 1.039018 0.16686274
0.80384296 1.039018 0.1590196
0.80384296 1.039018 0.15117647
0.80384296 1.039018 0.14333335
0.80384296 1.039018 0.13549021
0.80384296 1.039018 0.12764707
0.80384296 1.039018 0.11980393
0.80384296 1.039018 0.11196079
0.80384296 1.039018 0.10411765
0.80384296 1.039018 0.09627451
0.80384296 1.039018 0.088431373
0.80384296 1.039018 0.080588236
0.80384296 1.039018 0.0727451
0.80384296 1.039018 0.064901963
0.80384296 1.039018 0.057058826
0.80384296 1.039018 0.049215689
0.80384296 1.039018 0.041372553
0.80384296 1.039018 0.033529416
0.80384296 1.039018 0.025686279
0.80384296 1.039018 0.017843127
0.81522411 1.0765368 0.40215686
0.81522411 1.0765368 0.39431372
0.81522411 1.0765368 0.38647059
0.81522411 1.0765368 0.37862745
0.81522411 1.0765368 0.37078431
0.81522411 1.0765368 0.36294118
0.81522411 1.0765368 0.35509804
0.81522411 1.0765368 0.3472549
0.81522411 1.0765368 0.33941177
0.81522411 1.0765368 0.33156863
0.81522411 1.0765368 0.32372549
0.81522411 1.0765368 0.31588235
0.81522411 1.0765368 0.30803922
0.81522411 1.0765368 0.30019608
0.81522411 1.0765368 0.29235294
0.81522411 1.0765368 0.28450981
0.81522411 1.0765368 0.27666667
0.81522411 1.0765368 0.26882353
0.81522411 1.0765368 0.2609804
0.81522411 1.0765368 0.25313726
0.81522411 1.0765368 0.24529412
0.81522411 1.0765368 0.23745099
0.81522411 1.0765368 0.22960785
0.81522411 1.0765368 0.22176471
0.81522411 1.0765368 0.21392158
0.81522411 1.0765368 0.20607844
0.81522411 1.0765368 0.1982353
0.81522411 1.0765368 0.19039215
0.81522411 1.0765368 0.18254901
0.81522411 1.0765368 0.17470588
0.81522411 1.0765368 0.16686274
0.81522411 1.0765368 0.1590196
0.81522411 1.0765368 0.15117647
0.81522411 1.0765368 0.14333335
0.81522411 1.0765368 0.13549021
0.81522411 1.0765368 0.12764707
0.81522411 1.0765368 0.11980393
0.81522411 1.0765368 0.11196079
0.81522411 1.0765368 0.10411765
0.81522411 1.0765368 0.09627451
0.81522411 1.0765368 0.088431373
0.81522411 1.0765368 0.080588236
0.81522411 1.0765368 0.0727451
0.81522411 1.0765368 0.064901963
0.81522411 1.0765368 0.057058826
0.81522411 1.0765368 0.049215689
0.81522411 1.0765368 0.041372553
0.81522411 1.0765368 0.033529416
0.81522411 1.0765368 0.025686279
0.81522411 1.0765368 0.017843127
0.83370602 1.111114 0.40215686
0.83370602 1.111114 0.39431372
0.83370602 1.111114 0.38647059
0.83370602 1.111114 0.37862745
0.83370602 1.111114 0.37078431
0.83370602 1.111114 0.36294118
0.83370602 1.111114 0.35509804
0.83370602 1.111114 0.3472549
0.83370602 1.111114 0.33941177
0.83370602 1.111114 0.33156863
0.83370602 1.111114 0.32372549
0.83370602 1.111114 0.31588235
0.83370602 1.111114 0.30803922
0.83370602 1.111114 0.30019608
0.83370602 1.111114 0.29235294
0.83370602 1.111114 0.28450981
0.83370602 1.111114 0.27666667
0.83370602 1.111114 0.26882353
0.83370602 1.111114 0.2609804
0.83370602 1.111114 0.25313726
0.83370602 1.111114 0.24529412
0.83370602 1.111114 0.23745099
0.83370602 1.111114 0.22960785
0.83370602 1.111114 0.22176471
0.83370602 1.111114 0.21392158
0.83370602 1.111114 0.20607844
0.83370602 1.111114 0.1982353
0.83370602 1.111114 0.19039215
0.83370602 1.111114 0.18254901
0.83370602 1.111114 0.17470588
0.83370602 1.111114 0.16686274
0.83370602 1.111114 0.1590196
0.83370602 1.111114 0.15117647
0.83370602 1.111114 0.14333335
0.83370602 1.111114 0.13549021
0.83370602 1.111114 0.12764707
0.83370602 1.111114 0.11980393
0.83370602 1.111114 0.11196079
0.83370602 1.111114 0.10411765
0.83370602 1.111114 0.09627451
0.83370602 1.111114 0.088431373
0.83370602 1.111114 0.080588236
0.83370602 1.111114 0.0727451
0.83370602 1.111114 0.064901963
0.83370602 1.111114 0.057058826
0.83370602 1.111114 0.049215689
0.83370602 1.111114 0.041372553
0.83370602 1.111114 0.033529416
0.83370602 1.111114 0.025686279
0.83370602 1.111114 0.017843127
0.85857862 1.1414213 0.40215686
0.85857862 1.1414213 0.39431372
0.85857862 1.1414213 0.38647059
0.85857862 1.1414213 0.37862745
0.85857862 1.1414213 0.37078431
0.85857862 1.1414213 0.36294118
0.85857862 1.1414213 0.35509804
0.85857862 1.1414213 0.3472549
0.85857862 1.1414213 0.33941177
0.85857862 1.1414213 0.33156863
0.85857862 1.1414213 0.32372549
0.85857862 1.1414213 0.31588235
0.85857862 1.1414213 0.30803922
0.85857862 1.1414213 0.30019608
0.85857862 1.1414213 0.29235294
0.85857862 1.1414213 0.28450981
0.85857862 1.1414213 0.27666667
0.85857862 1.1414213 0.26882353
0.85857862 1.1414213 0.2609804
0.85857862 1.1414213 0.25313726
0.85857862 1.1414213 0.24529412
0.85857862 1.1414213 0.23745099
0.85857862 1.1414213 0.22960785
0.85857862 1.1414213 0.22176471
0.85857862 1.1414213 0.21392158
0.85857862 1.1414213 0.20607844
0.85857862 1.1414213 0.1982353
0.85857862 1.1414213 0.19039215
0.85857862 1.1414213 0.18254901
0.85857862 1.1414213 0.17470588
0.85857862 1.1414213 0.16686274
0.85857862 1.1414213 0.1590196
0.85857862 1.1414213 0.15117647
0.85857862 1.1414213 0.14333335
0.85857862 1.1414213 0.13549021
0.85857862 1.1414213 0.12764707
0.85857862 1.1414213 0.11980393
0.85857862 1.1414213 0.11196079
0.85857862 1.1414213 0.10411765
0.85857862 1.1414213 0.09627451
0.85857862 1.1414213 0.088431373
0.85857862 1.1414213 0.080588236
0.85857862 1.1414213 0.0727451
0.85857862 1.1414213 0.064901963
0.85857862 1.1414213 0.057058826
0.85857862 1.1414213 0.049215689
0.85857862 1.1414213 0.041372553
0.85857862 1.1414213 0.033529416
0.85857862 1.1414213 0.025686279
0.85857862 1.1414213 0.017843127
0.88888592 1.1662939 0.40215686
0.88888592 1.1662939 0.39431372
0.88888592 1.1662939 0.38647059
0.88888592 1.1662939 0.37862745
0.88888592 1.1662939 0.37078431
0.88888592 1.1662939 0.36294118
0.88888592 1.1662939 0.35509804
0.88888592 1.1662939 0.3472549
0.88888592 1.1662939 0.33941177
0.88888592 1.1662939 0.33156863
0.88888592 1.1662939 0.32372549
0.88888592 1.1662939 0.31588235
0.88888592 1.1662939 0.30803922
0.88888592 1.1662939 0.30019608
0.88888592 1.1662939 0.29235294
0.88888592 1.1662939 0.28450981
0.88888592 1.1662939 0.27666667
0.88888592 1.1662939 0.26882353
0.88888592 1.1662939 0.2609804
0.88888592 1.1662939 0.25313726
0.88888592 1.1662939 0.24529412
0.88888592 1.1662939 0.23745099
0.88888592 1.1662939 0.22960785
0.88888592 1.1662939 0.22176471
0.88888592 1.1662939 0.21392158
0.88888592 1.1662939 0.20607844
0.88888592 1.1662939 0.1982353
0.88888592 1.1662939 0.19039215
0.88888592 1.1662939 0.18254901
0.88888592 1.1662939 0.17470588
0.88888592 1.1662939 0.16686274
0.88888592 1.1662939 0.1590196
0.88888592 1.1662939 0.15117647
0.88888592 1.1662939 0.14333335
0.88888592 1.1662939 0.13549021
0.88888592 1.1662939 0.12764707
0.88888592 1.1662939 0.11980393
0.88888592 1.1662939 0.11196079
0.88888592 1.1662939 0.10411765
0.88888592 1.1662939 0.09627451
0.88888592 1.1662939 0.088431373
0.88888592 1.1662939 0.080588236
0.88888592 1.1662939 0.0727451
0.88888592 1.1662939 0.064901963
0.88888592 1.1662939 0.057058826
0.88888592 1.1662939 0.049215689
0.88888592 1.1662939 0.041372553
0.88888592 1.1662939 0.033529416
0.88888592 1.1662939 0.025686279
0.88888592 1.1662939 0.017843127
0.92346334 1.1847759 0.40215686
0.92346334 1.1847759 0.39431372
0.92346334 1.1847759 0.38647059
0.92346334 1.1847759 0.37862745
0.92346334 1.1847759 0.37078431
0.92346334 1.1847759 0.36294118
0.92346334 1.1847759 0.35509804
0.92346334 1.1847759 0.3472549
0.92346334 1.1847759 0.33941177
0.92346334 1.1847759 0.33156863
0.92346334 1.1847759 0.32372549
0.92346334 1.1847759 0.31588235
0.92346334 1.1847759 0.30803922
0.92346334 1.1847759 0.30019608
0.92346334 1.1847759 0.29235294
0.92346334 1.1847759 0.28450981
0.92346334 1.1847759 0.27666667
0.92346334 1.1847759 0.26882353
0.92346334 1.1847759 0.2609804
0.92346334 1.1847759 0.25313726
0.92346334 1.1847759 0.24529412
0.92346334 1.1847759 0.23745099
0.92346334 1.1847759 0.22960785
0.92346334 1.1847759 0.22176471
0.92346334 1.1847759 0.21392158
0.92346334 1.1847759 0.20607844
0.92346334 1.1847759 0.1982353
0.92346334 1.1847759 0.19039215
0.92346334 1.1847759 0.18254901
0.92346334 1.1847759 0.17470588
0.92346334 1.1847759 0.16686274
0.92346334 1.1847759 0.1590196
0.92346334 1.1847759 0.15117647
0.92346334 1.1847759 0.14333335
0.92346334 1.1847759 0.13549021
0.92346334 1.1847759 0.12764707
0.92346334 1.1847759 0.11980393
0.92346334 1.1847759 0.11196079
0.92346334 1.1847759 0.10411765
0.92346334 1.1847759 0.09627451
0.92346334 1.1847759 0.088431373
0.92346334 1.1847759 0.080588236
0.92346334 1.1847759 0.0727451
0.92346334 1.1847759 0.064901963
0.92346334 1.1847759 0.057058826
0.92346334 1.1847759 0.049215689
0.92346334 1.1847759 0.041372553
0.92346334 1.1847759 0.033529416
0.92346334 1.1847759 0.025686279
0.92346334 1.1847759 0.017843127
0.96098197 1.1961571 0.40215686
0.96098197 1.1961571 0.39431372
0.96098197 1.1961571 0.38647059
0.96098197 1.1961571 0.37862745
0.96098197 1.1961571 0.37078431
0.96098197 1.1961571 0.36294118
0.96098197 1.1961571 0.35509804
0.96098197 1.1961571 0.3472549
0.96098197 1.1961571 0.33941177
0.96098197 1.1961571 0.33156863
0.96098197 1.1961571 0.32372549
0.96098197 1.1961571 0.31588235
0.96098197 1.1961571 0.30803922
0.96098197 1.1961571 0.30019608
0.96098197 1.1961571 0.29235294
0.96098197 1.1961571 0.28450981
0.96098197 1.1961571 0.27666667
0.96098197 1.1961571 0.26882353
0.96098197 1.1961571 0.2609804
0.96098197 1.1961571 0.25313726
0.96098197 1.1961571 0.24529412
0.96098197 1.1961571 0.23745099
0.96098197 1.1961571 0.22960785
