# .PCD v0.7 - Point Cloud Data file format
VERSION 0.7
FIELDS x y z
SIZE 4 4 4
TYPE F F F
COUNT 1 1 1
WIDTH 1461
HEIGHT 1
VIEWPOINT 0 0 0 1 0 0 0
POINTS 1461
DATA ascii
0.11111405 -0.83370608 0.24529412
0.11111405 -0.83370608 0.23745099
0.11111405 -0.83370608 0.22960785
0.11111405 -0.83370608 0.22176471
0.11111405 -0.83370608 0.21392158
0.11111405 -0.83370608 0.20607844
0.11111405 -0.83370608 0.1982353
0.11111405 -0.83370608 0.19039215
0.11111405 -0.83370608 0.18254901
0.11111405 -0.83370608 0.17470588
0.11111405 -0.83370608 0.16686274
0.11111405 -0.83370608 0.1590196
0.11111405 -0.83370608 0.15117647
0.11111405 -0.83370608 0.14333335
0.11111405 -0.83370608 0.13549021
0.11111405 -0.83370608 0.12764707
0.11111405 -0.83370608 0.11980393
0.11111405 -0.83370608 0.11196079
0.11111405 -0.83370608 0.10411765
0.11111405 -0.83370608 0.09627451
0.11111405 -0.83370608 0.088431373
0.11111405 -0.83370608 0.080588236
0.11111405 -0.83370608 0.0727451
0.11111405 -0.83370608 0.064901963
0.11111405 -0.83370608 0.057058826
0.11111405 -0.83370608 0.049215689
0.11111405 -0.83370608 0.041372553
0.11111405 -0.83370608 0.033529416
0.11111405 -0.83370608 0.025686279
0.11111405 -0.83370608 0.017843127
0.14142136 -0.85857862 0.40215686
0.14142136 -0.85857862 0.39431372
0.14142136 -0.85857862 0.38647059
0.14142136 -0.85857862 0.37862745
0.14142136 -0.85857862 0.37078431
0.14142136 -0.85857862 0.36294118
0.14142136 -0.85857862 0.35509804
0.14142136 -0.85857862 0.3472549
0.14142136 -0.85857862 0.33941177
0.14142136 -0.85857862 0.33156863
0.14142136 -0.85857862 0.32372549
0.14142136 -0.85857862 0.31588235
0.14142136 -0.85857862 0.30803922
0.14142136 -0.85857862 0.30019608
0.14142136 -0.85857862 0.29235294
0.14142136 -0.85857862 0.28450981
0.14142136 -0.85857862 0.27666667
0.14142136 -0.85857862 0.26882353
0.14142136 -0.85857862 0.2609804
0.14142136 -0.85857862 0.25313726
0.14142136 -0.85857862 0.24529412
0.14142136 -0.85857862 0.23745099
0.14142136 -0.85857862 0.22960785
0.14142136 -0.85857862 0.22176471
0.14142136 -0.85857862 0.21392158
0.14142136 -0.85857862 0.20607844
0.14142136 -0.85857862 0.1982353
0.14142136 -0.85857862 0.19039215
0.14142136 -0.85857862 0.18254901
0.14142136 -0.85857862 0.17470588
0.14142136 -0.85857862 0.16686274
0.14142136 -0.85857862 0.1590196
0.14142136 -0.85857862 0.15117647
0.14142136 -0.85857862 0.14333335
0.14142136 -0.85857862 0.13549021
0.14142136 -0.85857862 0.12764707
0.14142136 -0.85857862 0.11980393
0.14142136 -0.85857862 0.11196079
0.14142136 -0.85857862 0.10411765
0.14142136 -0.85857862 0.09627451
0.14142136 -0.85857862 0.088431373
0.14142136 -0.85857862 0.080588236
0.14142136 -0.85857862 0.0727451
0.14142136 -0.85857862 0.064901963
0.14142136 -0.85857862 0.057058826
0.14142136 -0.85857862 0.049215689
0.14142136 -0.85857862 0.041372553
0.14142136 -0.85857862 0.033529416
0.14142136 -0.85857862 0.025686279
0.14142136 -0.85857862 0.017843127
0.16629392 -0.88888597 0.40215686
0.16629392 -0.88888597 0.39431372
0.16629392 -0.88888597 0.38647059
0.16629392 -0.88888597 0.37862745
0.16629392 -0.88888597 0.37078431
0.16629392 -0.88888597 0.36294118
0.16629392 -0.88888597 0.35509804
0.16629392 -0.88888597 0.3472549
0.16629392 -0.88888597 0.33941177
0.16629392 -0.88888597 0.33156863
0.16629392 -0.88888597 0.32372549
0.16629392 -0.88888597 0.31588235
0.16629392 -0.88888597 0.30803922
0.16629392 -0.88888597 0.30019608
0.16629392 -0.88888597 0.29235294
0.16629392 -0.88888597 0.28450981
0.16629392 -0.88888597 0.27666667
0.16629392 -0.88888597 0.26882353
0.16629392 -0.88888597 0.2609804
0.16629392 -0.88888597 0.25313726
0.16629392 -0.88888597 0.24529412
0.16629392 -0.88888597 0.23745099
0.16629392 -0.88888597 0.22960785
0.16629392 -0.88888597 0.22176471
0.16629392 -0.88888597 0.21392158
0.16629392 -0.88888597 0.20607844
0.16629392 -0.88888597 0.1982353
0.16629392 -0.88888597 0.19039215
0.16629392 -0.88888597 0.18254901
0.16629392 -0.88888597 0.17470588
0.16629392 -0.88888597 0.16686274
0.16629392 -0.88888597 0.1590196
0.16629392 -0.88888597 0.15117647
0.16629392 -0.88888597 0.14333335
0.16629392 -0.88888597 0.13549021
0.16629392 -0.88888597 0.12764707
0.16629392 -0.88888597 0.11980393
0.16629392 -0.88888597 0.11196079
0.16629392 -0.88888597 0.10411765
0.16629392 -0.88888597 0.09627451
0.16629392 -0.88888597 0.088431373
0.16629392 -0.88888597 0.080588236
0.16629392 -0.88888597 0.0727451
0.16629392 -0.88888597 0.064901963
0.16629392 -0.88888597 0.057058826
0.16629392 -0.88888597 0.049215689
0.16629392 -0.88888597 0.041372553
0.16629392 -0.88888597 0.033529416
0.16629392 -0.88888597 0.025686279
0.16629392 -0.88888597 0.017843127
0.1847759 -0.92346334 0.40215686
0.1847759 -0.92346334 0.39431372
0.1847759 -0.92346334 0.38647059
0.1847759 -0.92346334 0.37862745
0.1847759 -0.92346334 0.37078431
0.1847759 -0.92346334 0.36294118
0.1847759 -0.92346334 0.35509804
0.1847759 -0.92346334 0.3472549
0.1847759 -0.92346334 0.33941177
0.1847759 -0.92346334 0.33156863
0.1847759 -0.92346334 0.32372549
0.1847759 -0.92346334 0.31588235
0.1847759 -0.92346334 0.30803922
0.1847759 -0.92346334 0.30019608
0.1847759 -0.92346334 0.29235294
0.1847759 -0.92346334 0.28450981
0.1847759 -0.92346334 0.27666667
0.1847759 -0.92346334 0.26882353
0.1847759 -0.92346334 0.2609804
0.1847759 -0.92346334 0.25313726
0.1847759 -0.92346334 0.24529412
0.1847759 -0.92346334 0.23745099
0.1847759 -0.92346334 0.22960785
0.1847759 -0.92346334 0.22176471
0.1847759 -0.92346334 0.21392158
0.1847759 -0.92346334 0.20607844
0.1847759 -0.92346334 0.1982353
0.1847759 -0.92346334 0.19039215
0.1847759 -0.92346334 0.18254901
0.1847759 -0.92346334 0.17470588
0.1847759 -0.92346334 0.16686274
0.1847759 -0.92346334 0.1590196
0.1847759 -0.92346334 0.15117647
0.1847759 -0.92346334 0.14333335
0.1847759 -0.92346334 0.13549021
0.1847759 -0.92346334 0.12764707
0.1847759 -0.92346334 0.11980393
0.1847759 -0.92346334 0.11196079
0.1847759 -0.92346334 0.10411765
0.1847759 -0.92346334 0.09627451
0.1847759 -0.92346334 0.088431373
0.1847759 -0.92346334 0.080588236
0.1847759 -0.92346334 0.0727451
0.1847759 -0.92346334 0.064901963
0.1847759 -0.92346334 0.057058826
0.1847759 -0.92346334 0.049215689
0.1847759 -0.92346334 0.041372553
0.1847759 -0.92346334 0.033529416
0.1847759 -0.92346334 0.025686279
0.1847759 -0.92346334 0.017843127
0.19615705 -0.96098191 0.40215686
0.19615705 -0.96098191 0.39431372
0.19615705 -0.96098191 0.38647059
0.19615705 -0.96098191 0.37862745
0.19615705 -0.96098191 0.37078431
0.19615705 -0.96098191 0.36294118
0.19615705 -0.96098191 0.35509804
0.19615705 -0.96098191 0.3472549
0.19615705 -0.96098191 0.33941177
0.19615705 -0.96098191 0.33156863
0.19615705 -0.96098191 0.32372549
0.19615705 -0.96098191 0.31588235
0.19615705 -0.96098191 0.30803922
0.19615705 -0.96098191 0.30019608
0.19615705 -0.96098191 0.29235294
0.19615705 -0.96098191 0.28450981
0.19615705 -0.96098191 0.27666667
0.19615705 -0.96098191 0.26882353
0.19615705 -0.96098191 0.2609804
0.19615705 -0.96098191 0.25313726
0.19615705 -0.96098191 0.24529412
0.19615705 -0.96098191 0.23745099
0.19615705 -0.96098191 0.22960785
0.19615705 -0.96098191 0.22176471
0.19615705 -0.96098191 0.21392158
0.19615705 -0.96098191 0.20607844
0.19615705 -0.96098191 0.1982353
0.19615705 -0.96098191 0.19039215
0.19615705 -0.96098191 0.18254901
0.19615705 -0.96098191 0.17470588
0.19615705 -0.96098191 0.16686274
0.19615705 -0.96098191 0.1590196
0.19615705 -0.96098191 0.15117647
0.19615705 -0.96098191 0.14333335
0.19615705 -0.96098191 0.13549021
0.19615705 -0.96098191 0.12764707
0.19615705 -0.96098191 0.11980393
0.19615705 -0.96098191 0.11196079
0.19615705 -0.96098191 0.10411765
0.19615705 -0.96098191 0.09627451
0.19615705 -0.96098191 0.088431373
0.19615705 -0.96098191 0.080588236
0.19615705 -0.96098191 0.0727451
0.19615705 -0.96098191 0.064901963
0.19615705 -0.96098191 0.057058826
0.19615705 -0.96098191 0.049215689
0.19615705 -0.96098191 0.041372553
0.19615705 -0.96098191 0.033529416
0.19615705 -0.96098191 0.025686279
0.19615705 -0.96098191 0.017843127
0.2 -1 0.40215686
0.2 -1 0.39431372
0.2 -1 0.38647059
0.2 -1 0.37862745
0.2 -1 0.37078431
0.2 -1 0.36294118
0.2 -1 0.35509804
0.2 -1 0.3472549
0.2 -1 0.33941177
0.2 -1 0.33156863
0.2 -1 0.32372549
0.2 -1 0.31588235
0.2 -1 0.30803922
0.2 -1 0.30019608
0.2 -1 0.29235294
0.2 -1 0.28450981
0.2 -1 0.27666667
0.2 -1 0.26882353
0.2 -1 0.2609804
0.2 -1 0.25313726
0.2 -1 0.24529412
0.2 -1 0.23745099
0.2 -1 0.22960785
0.2 -1 0.22176471
0.2 -1 0.21392158
0.2 -1 0.20607844
0.2 -1 0.1982353
0.2 -1 0.19039215
0.2 -1 0.18254901
0.2 -1 0.17470588
0.2 -1 0.16686274
0.2 -1 0.1590196
0.2 -1 0.15117647
0.2 -1 0.14333335
0.2 -1 0.13549021
0.2 -1 0.12764707
0.2 -1 0.11980393
0.2 -1 0.11196079
0.2 -1 0.10411765
0.2 -1 0.09627451
0.2 -1 0.088431373
0.2 -1 0.080588236
0.2 -1 0.0727451
0.2 -1 0.064901963
0.2 -1 0.057058826
0.2 -1 0.049215689
0.2 -1 0.041372553
0.2 -1 0.033529416
0.2 -1 0.025686279
0.2 -1 0.017843127
0.19615705 -1.039018 0.40215686
0.19615705 -1.039018 0.39431372
0.19615705 -1.039018 0.38647059
0.19615705 -1.039018 0.37862745
0.19615705 -1.039018 0.37078431
0.19615705 -1.039018 0.36294118
0.19615705 -1.039018 0.35509804
0.19615705 -1.039018 0.3472549
0.19615705 -1.039018 0.33941177
0.19615705 -1.039018 0.33156863
0.19615705 -1.039018 0.32372549
0.19615705 -1.039018 0.31588235
0.19615705 -1.039018 0.30803922
0.19615705 -1.039018 0.30019608
0.19615705 -1.039018 0.29235294
0.19615705 -1.039018 0.28450981
0.19615705 -1.039018 0.27666667
0.19615705 -1.039018 0.26882353
0.19615705 -1.039018 0.2609804
0.19615705 -1.039018 0.25313726
0.19615705 -1.039018 0.24529412
0.19615705 -1.039018 0.23745099
0.19615705 -1.039018 0.22960785
0.19615705 -1.039018 0.22176471
0.19615705 -1.039018 0.21392158
0.19615705 -1.039018 0.20607844
0.19615705 -1.039018 0.1982353
0.19615705 -1.039018 0.19039215
0.19615705 -1.039018 0.18254901
0.19615705 -1.039018 0.17470588
0.19615705 -1.039018 0.16686274
0.19615705 -1.039018 0.1590196
0.19615705 -1.039018 0.15117647
0.19615705 -1.039018 0.14333335
0.19615705 -1.039018 0.13549021
0.19615705 -1.039018 0.12764707
0.19615705 -1.039018 0.11980393
0.19615705 -1.039018 0.11196079
0.19615705 -1.039018 0.10411765
0.19615705 -1.039018 0.09627451
0.19615705 -1.039018 0.088431373
0.19615705 -1.039018 0.080588236
0.19615705 -1.039018 0.0727451
0.19615705 -1.039018 0.064901963
0.19615705 -1.039018 0.057058826
0.19615705 -1.039018 0.049215689
0.19615705 -1.039018 0.041372553
0.19615705 -1.039018 0.033529416
0.19615705 -1.039018 0.025686279
0.19615705 -1.039018 0.017843127
0.18477592 -1.0765367 0.40215686
0.18477592 -1.0765367 0.39431372
0.18477592 -1.0765367 0.38647059
0.18477592 -1.0765367 0.37862745
0.18477592 -1.0765367 0.37078431
0.18477592 -1.0765367 0.36294118
0.18477592 -1.0765367 0.35509804
0.18477592 -1.0765367 0.3472549
0.18477592 -1.0765367 0.33941177
0.18477592 -1.0765367 0.33156863
0.18477592 -1.0765367 0.32372549
0.18477592 -1.0765367 0.31588235
0.18477592 -1.0765367 0.30803922
0.18477592 -1.0765367 0.30019608
0.18477592 -1.0765367 0.29235294
0.18477592 -1.0765367 0.28450981
0.18477592 -1.0765367 0.27666667
0.18477592 -1.0765367 0.26882353
0.18477592 -1.0765367 0.2609804
0.18477592 -1.0765367 0.25313726
0.18477592 -1.0765367 0.24529412
0.18477592 -1.0765367 0.23745099
0.18477592 -1.0765367 0.22960785
0.18477592 -1.0765367 0.22176471
0.18477592 -1.0765367 0.21392158
0.18477592 -1.0765367 0.20607844
0.18477592 -1.0765367 0.1982353
0.18477592 -1.0765367 0.19039215
0.18477592 -1.0765367 0.18254901
0.18477592 -1.0765367 0.17470588
0.18477592 -1.0765367 0.16686274
0.18477592 -1.0765367 0.1590196
0.18477592 -1.0765367 0.15117647
0.18477592 -1.0765367 0.14333335
0.18477592 -1.0765367 0.13549021
0.18477592 -1.0765367 0.12764707
0.18477592 -1.0765367 0.11980393
0.18477592 -1.0765367 0.11196079
0.18477592 -1.0765367 0.10411765
0.18477592 -1.0765367 0.09627451
0.18477592 -1.0765367 0.088431373
0.18477592 -1.0765367 0.080588236
0.18477592 -1.0765367 0.0727451
0.18477592 -1.0765367 0.064901963
0.18477592 -1.0765367 0.057058826
0.18477592 -1.0765367 0.049215689
0.18477592 -1.0765367 0.041372553
0.18477592 -1.0765367 0.033529416
0.18477592 -1.0765367 0.025686279
0.18477592 -1.0765367 0.017843127
0.16629393 -1.111114 0.40215686
0.16629393 -1.111114 0.39431372
0.16629393 -1.111114 0.38647059
0.16629393 -1.111114 0.37862745
0.16629393 -1.111114 0.37078431
0.16629393 -1.111114 0.36294118
0.16629393 -1.111114 0.35509804
0.16629393 -1.111114 0.3472549
0.16629393 -1.111114 0.33941177
0.16629393 -1.111114 0.33156863
0.16629393 -1.111114 0.32372549
0.16629393 -1.111114 0.31588235
0.16629393 -1.111114 0.30803922
0.16629393 -1.111114 0.30019608
0.16629393 -1.111114 0.29235294
0.16629393 -1.111114 0.28450981
0.16629393 -1.111114 0.27666667
0.16629393 -1.111114 0.26882353
0.16629393 -1.111114 0.2609804
0.16629393 -1.111114 0.25313726
0.16629393 -1.111114 0.24529412
0.16629393 -1.111114 0.23745099
0.16629393 -1.111114 0.22960785
0.16629393 -1.111114 0.22176471
0.16629393 -1.111114 0.21392158
0.16629393 -1.111114 0.20607844
0.16629393 -1.111114 0.1982353
0.16629393 -1.111114 0.19039215
0.16629393 -1.111114 0.18254901
0.16629393 -1.111114 0.17470588
0.16629393 -1.111114 0.16686274
0.16629393 -1.111114 0.1590196
0.16629393 -1.111114 0.15117647
0.16629393 -1.111114 0.14333335
0.16629393 -1.111114 0.13549021
0.16629393 -1.111114 0.12764707
0.16629393 -1.111114 0.11980393
0.16629393 -1.111114 0.11196079
0.16629393 -1.111114 0.10411765
0.16629393 -1.111114 0.09627451
0.16629393 -1.111114 0.088431373
0.16629393 -1.111114 0.080588236
0.16629393 -1.111114 0.0727451
0.16629393 -1.111114 0.064901963
0.16629393 -1.111114 0.057058826
0.16629393 -1.111114 0.049215689
0.16629393 -1.111114 0.041372553
0.16629393 -1.111114 0.033529416
0.16629393 -1.111114 0.025686279
0.16629393 -1.111114 0.017843127
0.14142136 -1.1414213 0.40215686
0.14142136 -1.1414213 0.39431372
0.14142136 -1.1414213 0.38647059
0.14142136 -1.1414213 0.37862745
0.14142136 -1.1414213 0.37078431
0.14142136 -1.1414213 0.36294118
0.14142136 -1.1414213 0.35509804
0.14142136 -1.1414213 0.3472549
0.14142136 -1.1414213 0.33941177
0.14142136 -1.1414213 0.33156863
0.14142136 -1.1414213 0.32372549
0.14142136 -1.1414213 0.31588235
0.14142136 -1.1414213 0.30803922
0.14142136 -1.1414213 0.30019608
0.14142136 -1.1414213 0.29235294
0.14142136 -1.1414213 0.28450981
0.14142136 -1.1414213 0.27666667
0.14142136 -1.1414213 0.26882353
0.14142136 -1.1414213 0.2609804
0.14142136 -1.1414213 0.25313726
0.14142136 -1.1414213 0.24529412
0.14142136 -1.1414213 0.23745099
0.14142136 -1.1414213 0.22960785
0.14142136 -1.1414213 0.22176471
0.14142136 -1.1414213 0.21392158
0.14142136 -1.1414213 0.20607844
0.14142136 -1.1414213 0.1982353
0.14142136 -1.1414213 0.19039215
0.14142136 -1.1414213 0.18254901
0.14142136 -1.1414213 0.17470588
0.14142136 -1.1414213 0.16686274
0.14142136 -1.1414213 0.1590196
0.14142136 -1.1414213 0.15117647
0.14142136 -1.1414213 0.14333335
0.14142136 -1.1414213 0.13549021
0.14142136 -1.1414213 0.12764707
0.14142136 -1.1414213 0.11980393
0.14142136 -1.1414213 0.11196079
0.14142136 -1.1414213 0.10411765
0.14142136 -1.1414213 0.09627451
0.14142136 -1.1414213 0.088431373
0.14142136 -1.1414213 0.080588236
0.14142136 -1.1414213 0.0727451
0.14142136 -1.1414213 0.064901963
0.14142136 -1.1414213 0.057058826
0.14142136 -1.1414213 0.049215689
0.14142136 -1.1414213 0.041372553
0.14142136 -1.1414213 0.033529416
0.14142136 -1.1414213 0.025686279
0.14142136 -1.1414213 0.017843127
0.11111404 -1.166294 0.40215686
0.11111404 -1.166294 0.39431372
0.11111404 -1.166294 0.38647059
0.11111404 -1.166294 0.37862745
0.11111404 -1.166294 0.37078431
0.11111404 -1.166294 0.36294118
0.11111404 -1.166294 0.35509804
0.11111404 -1.166294 0.3472549
0.11111404 -1.166294 0.33941177
0.11111404 -1.166294 0.33156863
0.11111404 -1.166294 0.32372549
0.11111404 -1.166294 0.31588235
0.11111404 -1.166294 0.30803922
0.11111404 -1.166294 0.30019608
0.11111404 -1.166294 0.29235294
0.11111404 -1.166294 0.28450981
0.11111404 -1.166294 0.27666667
0.11111404 -1.166294 0.26882353
0.11111404 -1.166294 0.2609804
0.11111404 -1.166294 0.25313726
0.11111404 -1.166294 0.24529412
0.11111404 -1.166294 0.23745099
0.11111404 -1.166294 0.22960785
0.11111404 -1.166294 0.22176471
0.11111404 -1.166294 0.21392158
0.11111404 -1.166294 0.20607844
0.11111404 -1.166294 0.1982353
0.11111404 -1.166294 0.19039215
0.11111404 -1.166294 0.18254901
0.11111404 -1.166294 0.17470588
0.11111404 -1.166294 0.16686274
0.11111404 -1.166294 0.1590196
0.11111404 -1.166294 0.15117647
0.11111404 -1.166294 0.14333335
0.11111404 -1.166294 0.13549021
0.11111404 -1.166294 0.12764707
0.11111404 -1.166294 0.11980393
0.11111404 -1.166294 0.11196079
0.11111404 -1.166294 0.10411765
0.11111404 -1.166294 0.09627451
0.11111404 -1.166294 0.088431373
0.11111404 -1.166294 0.080588236
0.11111404 -1.166294 0.0727451
0.11111404 -1.166294 0.064901963
0.11111404 -1.166294 0.057058826
0.11111404 -1.166294 0.049215689
0.11111404 -1.166294 0.041372553
0.11111404 -1.166294 0.033529416
0.11111404 -1.166294 0.025686279
0.11111404 -1.166294 0.017843127
0.0765367 -1.1847759 0.40215686
0.0765367 -1.1847759 0.39431372
0.0765367 -1.1847759 0.38647059
0.0765367 -1.1847759 0.37862745
0.0765367 -1.1847759 0.37078431
0.0765367 -1.1847759 0.36294118
0.0765367 -1.1847759 0.35509804
0.0765367 -1.1847759 0.3472549
0.0765367 -1.1847759 0.33941177
0.0765367 -1.1847759 0.33156863
0.0765367 -1.1847759 0.32372549
0.0765367 -1.1847759 0.31588235
0.0765367 -1.1847759 0.30803922
0.0765367 -1.1847759 0.30019608
0.0765367 -1.1847759 0.29235294
0.0765367 -1.1847759 0.28450981
0.0765367 -1.1847759 0.27666667
0.0765367 -1.1847759 0.26882353
0.0765367 -1.1847759 0.2609804
0.0765367 -1.1847759 0.25313726
0.0765367 -1.1847759 0.24529412
0.0765367 -1.1847759 0.23745099
0.0765367 -1.1847759 0.22960785
0.0765367 -1.1847759 0.22176471
0.0765367 -1.1847759 0.21392158
0.0765367 -1.1847759 0.20607844
0.0765367 -1.1847759 0.1982353
0.0765367 -1.1847759 0.19039215
0.0765367 -1.1847759 0.18254901
0.0765367 -1.1847759 0.17470588
0.0765367 -1.1847759 0.16686274
0.0765367 -1.1847759 0.1590196
0.0765367 -1.1847759 0.15117647
0.0765367 -1.1847759 0.14333335
0.0765367 -1.1847759 0.13549021
0.0765367 -1.1847759 0.12764707
0.0765367 -1.1847759 0.11980393
0.0765367 -1.1847759 0.11196079
0.0765367 -1.1847759 0.10411765
0.0765367 -1.1847759 0.09627451
0.0765367 -1.1847759 0.088431373
0.0765367 -1.1847759 0.080588236
0.0765367 -1.1847759 0.0727451
0.0765367 -1.1847759 0.064901963
0.0765367 -1.1847759 0.057058826
0.0765367 -1.1847759 0.049215689
0.0765367 -1.1847759 0.041372553
0.0765367 -1.1847759 0.033529416
0.0765367 -1.1847759 0.025686279
0.0765367 -1.1847759 0.017843127
0.039018061 -1.1961571 0.40215686
0.039018061 -1.1961571 0.39431372
0.039018061 -1.1961571 0.38647059
0.039018061 -1.1961571 0.37862745
0.039018061 -1.1961571 0.37078431
0.039018061 -1.1961571 0.36294118
0.039018061 -1.1961571 0.35509804
0.039018061 -1.1961571 0.3472549
0.039018061 -1.1961571 0.33941177
0.039018061 -1.1961571 0.33156863
0.039018061 -1.1961571 0.32372549
0.039018061 -1.1961571 0.31588235
0.039018061 -1.1961571 0.30803922
0.039018061 -1.1961571 0.30019608
0.039018061 -1.1961571 0.29235294
0.039018061 -1.1961571 0.28450981
0.039018061 -1.1961571 0.27666667
0.039018061 -1.1961571 0.26882353
0.039018061 -1.1961571 0.2609804
0.039018061 -1.1961571 0.25313726
0.039018061 -1.1961571 0.24529412
0.039018061 -1.1961571 0.23745099
0.039018061 -1.1961571 0.22960785
0.039018061 -1.1961571 0.22176471
0.039018061 -1.1961571 0.21392158
0.039018061 -1.1961571 0.20607844
0.039018061 -1.1961571 0.1982353
0.039018061 -1.1961571 0.19039215
0.039018061 -1.1961571 0.18254901
0.039018061 -1.1961571 0.17470588
0.039018061 -1.1961571 0.16686274
0.039018061 -1.1961571 0.1590196
0.039018061 -1.1961571 0.15117647
0.039018061 -1.1961571 0.14333335
0.039018061 -1.1961571 0.13549021
0.039018061 -1.1961571 0.12764707
0.039018061 -1.1961571 0.11980393
0.039018061 -1.1961571 0.11196079
0.039018061 -1.1961571 0.10411765
0.039018061 -1.1961571 0.09627451
0.039018061 -1.1961571 0.088431373
0.039018061 -1.1961571 0.080588236
0.039018061 -1.1961571 0.0727451
0.039018061 -1.1961571 0.064901963
0.039018061 -1.1961571 0.057058826
0.039018061 -1.1961571 0.049215689
0.039018061 -1.1961571 0.041372553
0.039018061 -1.1961571 0.033529416
0.039018061 -1.1961571 0.025686279
0.039018061 -1.1961571 0.017843127
-1.7484556e-08 -1.2 0.40215686
-1.7484556e-08 -1.2 0.39431372
-1.7484556e-08 -1.2 0.38647059
-1.7484556e-08 -1.2 0.37862745
-1.7484556e-08 -1.2 0.37078431
-1.7484556e-08 -1.2 0.36294118
-1.7484556e-08 -1.2 0.35509804
-1.7484556e-08 -1.2 0.3472549
-1.7484556e-08 -1.2 0.33941177
-1.7484556e-08 -1.2 0.33156863
-1.7484556e-08 -1.2 0.32372549
-1.7484556e-08 -1.2 0.31588235
-1.7484556e-08 -1.2 0.30803922
-1.7484556e-08 -1.2 0.30019608
-1.7484556e-08 -1.2 0.29235294
-1.7484556e-08 -1.2 0.28450981
-1.7484556e-08 -1.2 0.27666667
-1.7484556e-08 -1.2 0.26882353
-1.7484556e-08 -1.2 0.2609804
-1.7484556e-08 -1.2 0.25313726
-1.7484556e-08 -1.2 0.24529412
-1.7484556e-08 -1.2 0.23745099
-1.7484556e-08 -1.2 0.22960785
-1.7484556e-08 -1.2 0.22176471
-1.7484556e-08 -1.2 0.21392158
-1.7484556e-08 -1.2 0.20607844
-1.7484556e-08 -1.2 0.1982353
-1.7484556e-08 -1.2 0.19039215
-1.7484556e-08 -1.2 0.18254901
-1.7484556e-08 -1.2 0.17470588
-1.7484556e-08 -1.2 0.16686274
-1.7484556e-08 -1.2 0.1590196
-1.7484556e-08 -1.2 0.15117647
-1.7484556e-08 -1.2 0.14333335
-1.7484556e-08 -1.2 0.13549021
-1.7484556e-08 -1.2 0.12764707
-1.7484556e-08 -1.2 0.11980393
-1.7484556e-08 -1.2 0.11196079
-1.7484556e-08 -1.2 0.10411765
-1.7484556e-08 -1.2 0.09627451
-1.7484556e-08 -1.2 0.088431373
-1.7484556e-08 -1.2 0.080588236
-1.7484556e-08 -1.2 0.0727451
-1.7484556e-08 -1.2 0.064901963
-1.7484556e-08 -1.2 0.057058826
-1.7484556e-08 -1.2 0.049215689
-1.7484556e-08 -1.2 0.041372553
-1.7484556e-08 -1.2 0.033529416
-1.7484556e-08 -1.2 0.025686279
-1.7484556e-08 -1.2 0.017843127
-0.03901805 -1.1961571 0.40215686
-0.03901805 -1.1961571 0.39431372
-0.03901805 -1.1961571 0.38647059
-0.03901805 -1.1961571 0.37862745
-0.03901805 -1.1961571 0.37078431
-0.03901805 -1.1961571 0.36294118
-0.03901805 -1.1961571 0.35509804
-0.03901805 -1.1961571 0.3472549
-0.03901805 -1.1961571 0.33941177
-0.03901805 -1.1961571 0.33156863
-0.03901805 -1.1961571 0.32372549
-0.03901805 -1.1961571 0.31588235
-0.03901805 -1.1961571 0.30803922
-0.03901805 -1.1961571 0.30019608
-0.03901805 -1.1961571 0.29235294
-0.03901805 -1.1961571 0.28450981
-0.03901805 -1.1961571 0.27666667
-0.03901805 -1.1961571 0.26882353
-0.03901805 -1.1961571 0.2609804
-0.03901805 -1.1961571 0.25313726
-0.03901805 -1.1961571 0.24529412
-0.03901805 -1.1961571 0.23745099
-0.03901805 -1.1961571 0.22960785
-0.03901805 -1.1961571 0.22176471
-0.03901805 -1.1961571 0.21392158
-0.03901805 -1.1961571 0.20607844
-0.03901805 -1.1961571 0.1982353
-0.03901805 -1.1961571 0.19039215
-0.03901805 -1.1961571 0.18254901
-0.03901805 -1.1961571 0.17470588
-0.03901805 -1.1961571 0.16686274
-0.03901805 -1.1961571 0.1590196
-0.03901805 -1.1961571 0.15117647
-0.03901805 -1.1961571 0.14333335
-0.03901805 -1.1961571 0.13549021
-0.03901805 -1.1961571 0.12764707
-0.03901805 -1.1961571 0.11980393
-0.03901805 -1.1961571 0.11196079
-0.03901805 -1.1961571 0.10411765
-0.03901805 -1.1961571 0.09627451
-0.03901805 -1.1961571 0.088431373
-0.03901805 -1.1961571 0.080588236
-0.03901805 -1.1961571 0.0727451
-0.03901805 -1.1961571 0.064901963
-0.03901805 -1.1961571 0.057058826
-0.03901805 -1.1961571 0.049215689
-0.03901805 -1.1961571 0.041372553
-0.03901805 -1.1961571 0.033529416
-0.03901805 -1.1961571 0.025686279
-0.03901805 -1.1961571 0.017843127
-0.076536685 -1.1847759 0.40215686
-0.076536685 -1.1847759 0.39431372
-0.076536685 -1.1847759 0.38647059
-0.076536685 -1.1847759 0.37862745
-0.076536685 -1.1847759 0.37078431
-0.076536685 -1.1847759 0.36294118
-0.076536685 -1.1847759 0.35509804
-0.076536685 -1.1847759 0.3472549
-0.076536685 -1.1847759 0.33941177
-0.076536685 -1.1847759 0.33156863
-0.076536685 -1.1847759 0.32372549
-0.076536685 -1.1847759 0.31588235
-0.076536685 -1.1847759 0.30803922
-0.076536685 -1.1847759 0.30019608
-0.076536685 -1.1847759 0.29235294
-0.076536685 -1.1847759 0.28450981
-0.076536685 -1.1847759 0.27666667
-0.076536685 -1.1847759 0.26882353
-0.076536685 -1.1847759 0.2609804
-0.076536685 -1.1847759 0.25313726
-0.076536685 -1.1847759 0.24529412
-0.076536685 -1.1847759 0.23745099
-0.076536685 -1.1847759 0.22960785
-0.076536685 -1.1847759 0.22176471
-0.076536685 -1.1847759 0.21392158
-0.076536685 -1.1847759 0.20607844
-0.076536685 -1.1847759 0.1982353
-0.076536685 -1.1847759 0.19039215
-0.076536685 -1.1847759 0.18254901
-0.076536685 -1.1847759 0.17470588
-0.076536685 -1.1847759 0.16686274
-0.076536685 -1.1847759 0.1590196
-0.076536685 -1.1847759 0.15117647
-0.076536685 -1.1847759 0.14333335
-0.076536685 -1.1847759 0.13549021
-0.076536685 -1.1847759 0.12764707
-0.076536685 -1.1847759 0.11980393
-0.076536685 -1.1847759 0.11196079
-0.076536685 -1.1847759 0.10411765
-0.076536685 -1.1847759 0.09627451
-0.076536685 -1.1847759 0.088431373
-0.076536685 -1.1847759 0.080588236
-0.076536685 -1.1847759 0.0727451
-0.076536685 -1.1847759 0.064901963
-0.076536685 -1.1847759 0.057058826
-0.076536685 -1.1847759 0.049215689
-0.076536685 -1.1847759 0.041372553
-0.076536685 -1.1847759 0.033529416
-0.076536685 -1.1847759 0.025686279
-0.076536685 -1.1847759 0.017843127
-0.11111406 -1.1662939 0.40215686
-0.11111406 -1.1662939 0.39431372
-0.11111406 -1.1662939 0.38647059
-0.11111406 -1.1662939 0.37862745
-0.11111406 -1.1662939 0.37078431
-0.11111406 -1.1662939 0.36294118
-0.11111406 -1.1662939 0.35509804
-0.11111406 -1.1662939 0.3472549
-0.11111406 -1.1662939 0.33941177
-0.11111406 -1.1662939 0.33156863
-0.11111406 -1.1662939 0.32372549
-0.11111406 -1.1662939 0.31588235
-0.11111406 -1.1662939 0.30803922
-0.11111406 -1.1662939 0.30019608
-0.11111406 -1.1662939 0.29235294
-0.11111406 -1.1662939 0.28450981
-0.11111406 -1.1662939 0.27666667
-0.11111406 -1.1662939 0.26882353
-0.11111406 -1.1662939 0.2609804
-0.11111406 -1.1662939 0.25313726
-0.11111406 -1.1662939 0.24529412
-0.11111406 -1.1662939 0.23745099
-0.11111406 -1.1662939 0.22960785
-0.11111406 -1.1662939 0.22176471
-0.11111406 -1.1662939 0.21392158
-0.11111406 -1.1662939 0.20607844
-0.11111406 -1.1662939 0.1982353
-0.11111406 -1.1662939 0.19039215
-0.11111406 -1.1662939 0.18254901
-0.11111406 -1.1662939 0.17470588
-0.11111406 -1.1662939 0.16686274
-0.11111406 -1.1662939 0.1590196
-0.11111406 -1.1662939 0.15117647
-0.11111406 -1.1662939 0.14333335
-0.11111406 -1.1662939 0.13549021
-0.11111406 -1.1662939 0.12764707
-0.11111406 -1.1662939 0.11980393
-0.11111406 -1.1662939 0.11196079
-0.11111406 -1.1662939 0.10411765
-0.11111406 -1.1662939 0.09627451
-0.11111406 -1.1662939 0.088431373
-0.11111406 -1.1662939 0.080588236
-0.11111406 -1.1662939 0.0727451
-0.11111406 -1.1662939 0.064901963
-0.11111406 -1.1662939 0.057058826
-0.11111406 -1.1662939 0.049215689
-0.11111406 -1.1662939 0.041372553
-0.11111406 -1.1662939 0.033529416
-0.11111406 -1.1662939 0.025686279
-0.11111406 -1.1662939 0.017843127
-0.14142135 -1.1414213 0.40215686
-0.14142135 -1.1414213 0.39431372
-0.14142135 -1.1414213 0.38647059
-0.14142135 -1.1414213 0.37862745
-0.14142135 -1.1414213 0.37078431
-0.14142135 -1.1414213 0.36294118
-0.14142135 -1.1414213 0.35509804
-0.14142135 -1.1414213 0.3472549
-0.14142135 -1.1414213 0.33941177
-0.14142135 -1.1414213 0.33156863
-0.14142135 -1.1414213 0.32372549
-0.14142135 -1.1414213 0.31588235
-0.14142135 -1.1414213 0.30803922
-0.14142135 -1.1414213 0.30019608
-0.14142135 -1.1414213 0.29235294
-0.14142135 -1.1414213 0.28450981
-0.14142135 -1.1414213 0.27666667
-0.14142135 -1.1414213 0.26882353
-0.14142135 -1.1414213 0.2609804
-0.14142135 -1.1414213 0.25313726
-0.14142135 -1.1414213 0.24529412
-0.14142135 -1.1414213 0.23745099
-0.14142135 -1.1414213 0.22960785
-0.14142135 -1.1414213 0.22176471
-0.14142135 -1.1414213 0.21392158
-0.14142135 -1.1414213 0.20607844
-0.14142135 -1.1414213 0.1982353
-0.14142135 -1.1414213 0.19039215
-0.14142135 -1.1414213 0.18254901
-0.14142135 -1.1414213 0.17470588
-0.14142135 -1.1414213 0.16686274
-0.14142135 -1.1414213 0.1590196
-0.14142135 -1.1414213 0.15117647
-0.14142135 -1.1414213 0.14333335
-0.14142135 -1.1414213 0.13549021
-0.14142135 -1.1414213 0.12764707
-0.14142135 -1.1414213 0.11980393
-0.14142135 -1.1414213 0.11196079
-0.14142135 -1.1414213 0.10411765
-0.14142135 -1.1414213 0.09627451
-0.14142135 -1.1414213 0.088431373
-0.14142135 -1.1414213 0.080588236
-0.14142135 -1.1414213 0.0727451
-0.14142135 -1.1414213 0.064901963
-0.14142135 -1.1414213 0.057058826
-0.14142135 -1.1414213 0.049215689
-0.14142135 -1.1414213 0.041372553
-0.14142135 -1.1414213 0.033529416
-0.14142135 -1.1414213 0.025686279
-0.14142135 -1.1414213 0.017843127
-0.1662939 -1.111114 0.40215686
-0.1662939 -1.111114 0.39431372
-0.1662939 -1.111114 0.38647059
-0.1662939 -1.111114 0.37862745
-0.1662939 -1.111114 0.37078431
-0.1662939 -1.111114 0.36294118
-0.1662939 -1.111114 0.35509804
-0.1662939 -1.111114 0.3472549
-0.1662939 -1.111114 0.33941177
-0.1662939 -1.111114 0.33156863
-0.1662939 -1.111114 0.32372549
-0.1662939 -1.111114 0.31588235
-0.1662939 -1.111114 0.30803922
-0.1662939 -1.111114 0.30019608
-0.1662939 -1.111114 0.29235294
-0.1662939 -1.111114 0.28450981
-0.1662939 -1.111114 0.27666667
-0.1662939 -1.111114 0.26882353
-0.1662939 -1.111114 0.2609804
-0.1662939 -1.111114 0.25313726
-0.1662939 -1.111114 0.24529412
-0.1662939 -1.111114 0.23745099
-0.1662939 -1.111114 0.22960785
-0.1662939 -1.111114 0.22176471
-0.1662939 -1.111114 0.21392158
-0.1662939 -1.111114 0.20607844
-0.1662939 -1.111114 0.1982353
-0.1662939 -1.111114 0.19039215
-0.1662939 -1.111114 0.18254901
-0.1662939 -1.111114 0.17470588
-0.1662939 -1.111114 0.16686274
-0.1662939 -1.111114 0.1590196
-0.1662939 -1.111114 0.15117647
-0.1662939 -1.111114 0.14333335
-0.1662939 -1.111114 0.13549021
-0.1662939 -1.111114 0.12764707
-0.1662939 -1.111114 0.11980393
-0.1662939 -1.111114 0.11196079
-0.1662939 -1.111114 0.10411765
-0.1662939 -1.111114 0.09627451
-0.1662939 -1.111114 0.088431373
-0.1662939 -1.111114 0.080588236
-0.1662939 -1.111114 0.0727451
-0.1662939 -1.111114 0.064901963
-0.1662939 -1.111114 0.057058826
-0.1662939 -1.111114 0.049215689
-0.1662939 -1.111114 0.041372553
-0.1662939 -1.111114 0.033529416
-0.1662939 -1.111114 0.025686279
-0.1662939 -1.111114 0.017843127
-0.1847759 -1.0765367 0.40215686
-0.1847759 -1.0765367 0.39431372
-0.1847759 -1.0765367 0.38647059
-0.1847759 -1.0765367 0.37862745
-0.1847759 -1.0765367 0.37078431
-0.1847759 -1.0765367 0.36294118
-0.1847759 -1.0765367 0.35509804
-0.1847759 -1.0765367 0.3472549
-0.1847759 -1.0765367 0.33941177
-0.1847759 -1.0765367 0.33156863
-0.1847759 -1.0765367 0.32372549
-0.1847759 -1.0765367 0.31588235
-0.1847759 -1.0765367 0.30803922
-0.1847759 -1.0765367 0.30019608
-0.1847759 -1.0765367 0.29235294
-0.1847759 -1.0765367 0.28450981
-0.1847759 -1.0765367 0.27666667
-0.1847759 -1.0765367 0.26882353
-0.1847759 -1.0765367 0.2609804
-0.1847759 -1.0765367 0.25313726
-0.1847759 -1.0765367 0.24529412
-0.1847759 -1.0765367 0.23745099
-0.1847759 -1.0765367 0.22960785
-0.1847759 -1.0765367 0.22176471
-0.1847759 -1.0765367 0.21392158
-0.1847759 -1.0765367 0.20607844
-0.1847759 -1.0765367 0.1982353
-0.1847759 -1.0765367 0.19039215
-0.1847759 -1.0765367 0.18254901
-0.1847759 -1.0765367 0.17470588
-0.1847759 -1.0765367 0.16686274
-0.1847759 -1.0765367 0.1590196
-0.1847759 -1.0765367 0.15117647
-0.1847759 -1.0765367 0.14333335
-0.1847759 -1.0765367 0.13549021
-0.1847759 -1.0765367 0.12764707
-0.1847759 -1.0765367 0.11980393
-0.1847759 -1.0765367 0.11196079
-0.1847759 -1.0765367 0.10411765
-0.1847759 -1.0765367 0.09627451
-0.1847759 -1.0765367 0.088431373
-0.1847759 -1.0765367 0.080588236
-0.1847759 -1.0765367 0.0727451
-0.1847759 -1.0765367 0.064901963
-0.1847759 -1.0765367 0.057058826
-0.1847759 -1.0765367 0.049215689
-0.1847759 -1.0765367 0.041372553
-0.1847759 -1.0765367 0.033529416
-0.1847759 -1.0765367 0.025686279
-0.1847759 -1.0765367 0.017843127
-0.19615705 -1.039018 0.40215686
-0.19615705 -1.039018 0.39431372
-0.19615705 -1.039018 0.38647059
-0.19615705 -1.039018 0.37862745
-0.19615705 -1.039018 0.37078431
-0.19615705 -1.039018 0.36294118
-0.19615705 -1.039018 0.35509804
-0.19615705 -1.039018 0.3472549
-0.19615705 -1.039018 0.33941177
-0.19615705 -1.039018 0.33156863
-0.19615705 -1.039018 0.32372549
-0.19615705 -1.039018 0.31588235
-0.19615705 -1.039018 0.30803922
-0.19615705 -1.039018 0.30019608
-0.19615705 -1.039018 0.29235294
-0.19615705 -1.039018 0.28450981
-0.19615705 -1.039018 0.27666667
-0.19615705 -1.039018 0.26882353
-0.19615705 -1.039018 0.2609804
-0.19615705 -1.039018 0.25313726
-0.19615705 -1.039018 0.24529412
-0.19615705 -1.039018 0.23745099
-0.19615705 -1.039018 0.22960785
-0.19615705 -1.039018 0.22176471
-0.19615705 -1.039018 0.21392158
-0.19615705 -1.039018 0.20607844
-0.19615705 -1.039018 0.1982353
-0.19615705 -1.039018 0.19039215
-0.19615705 -1.039018 0.18254901
-0.19615705 -1.039018 0.17470588
-0.19615705 -1.039018 0.16686274
-0.19615705 -1.039018 0.1590196
-0.19615705 -1.039018 0.15117647
-0.19615705 -1.039018 0.14333335
-0.19615705 -1.039018 0.13549021
-0.19615705 -1.039018 0.12764707
-0.19615705 -1.039018 0.11980393
-0.19615705 -1.039018 0.11196079
-0.19615705 -1.039018 0.10411765
-0.19615705 -1.039018 0.09627451
-0.19615705 -1.039018 0.088431373
-0.19615705 -1.039018 0.080588236
-0.19615705 -1.039018 0.0727451
-0.19615705 -1.039018 0.064901963
-0.19615705 -1.039018 0.057058826
-0.19615705 -1.039018 0.049215689
-0.19615705 -1.039018 0.041372553
-0.19615705 -1.039018 0.033529416
-0.19615705 -1.039018 0.025686279
-0.19615705 -1.039018 0.017843127
-0.2 -1 0.40215686
-0.2 -1 0.39431372
-0.2 -1 0.38647059
-0.2 -1 0.37862745
-0.2 -1 0.37078431
-0.2 -1 0.36294118
-0.2 -1 0.35509804
-0.2 -1 0.3472549
-0.2 -1 0.33941177
-0.2 -1 0.33156863
-0.2 -1 0.32372549
-0.2 -1 0.31588235
-0.2 -1 0.30803922
-0.2 -1 0.30019608
-0.2 -1 0.29235294
-0.2 -1 0.28450981
-0.2 -1 0.27666667
-0.2 -1 0.26882353
-0.2 -1 0.2609804
-0.2 -1 0.25313726
-0.2 -1 0.24529412
-0.2 -1 0.23745099
-0.2 -1 0.22960785
-0.2 -1 0.22176471
-0.2 -1 0.21392158
-0.2 -1 0.20607844
-0.2 -1 0.1982353
-0.2 -1 0.19039215
-0.2 -1 0.18254901
-0.2 -1 0.17470588
-0.2 -1 0.16686274
-0.2 -1 0.1590196
-0.2 -1 0.15117647
-0.2 -1 0.14333335
-0.2 -1 0.13549021
-0.2 -1 0.12764707
-0.2 -1 0.11980393
-0.2 -1 0.11196079
-0.2 -1 0.10411765
-0.2 -1 0.09627451
-0.2 -1 0.088431373
-0.2 -1 0.080588236
-0.2 -1 0.0727451
-0.2 -1 0.064901963
-0.2 -1 0.057058826
-0.2 -1 0.049215689
-0.2 -1 0.041372553
-0.2 -1 0.033529416
-0.2 -1 0.025686279
-0.2 -1 0.017843127
-0.19615705 -0.96098191 0.40215686
-0.19615705 -0.96098191 0.39431372
-0.19615705 -0.96098191 0.38647059
-0.19615705 -0.96098191 0.37862745
-0.19615705 -0.96098191 0.37078431
-0.19615705 -0.96098191 0.36294118
-0.19615705 -0.96098191 0.35509804
-0.19615705 -0.96098191 0.3472549
-0.19615705 -0.96098191 0.33941177
-0.19615705 -0.96098191 0.33156863
-0.19615705 -0.96098191 0.32372549
-0.19615705 -0.96098191 0.31588235
-0.19615705 -0.96098191 0.30803922
-0.19615705 -0.96098191 0.30019608
-0.19615705 -0.96098191 0.29235294
-0.19615705 -0.96098191 0.28450981
-0.19615705 -0.96098191 0.27666667
-0.19615705 -0.96098191 0.26882353
-0.19615705 -0.96098191 0.2609804
-0.19615705 -0.96098191 0.25313726
-0.19615705 -0.96098191 0.24529412
-0.19615705 -0.96098191 0.23745099
-0.19615705 -0.96098191 0.22960785
-0.19615705 -0.96098191 0.22176471
-0.19615705 -0.96098191 0.21392158
-0.19615705 -0.96098191 0.20607844
-0.19615705 -0.96098191 0.1982353
-0.19615705 -0.96098191 0.19039215
-0.19615705 -0.96098191 0.18254901
-0.19615705 -0.96098191 0.17470588
-0.19615705 -0.96098191 0.16686274
-0.19615705 -0.96098191 0.1590196
-0.19615705 -0.96098191 0.15117647
-0.19615705 -0.96098191 0.14333335
-0.19615705 -0.96098191 0.13549021
-0.19615705 -0.96098191 0.12764707
-0.19615705 -0.96098191 0.11980393
-0.19615705 -0.96098191 0.11196079
-0.19615705 -0.96098191 0.10411765
-0.19615705 -0.96098191 0.09627451
-0.19615705 -0.96098191 0.088431373
-0.19615705 -0.96098191 0.080588236
-0.19615705 -0.96098191 0.0727451
-0.19615705 -0.96098191 0.064901963
-0.19615705 -0.96098191 0.057058826
-0.19615705 -0.96098191 0.049215689
-0.19615705 -0.96098191 0.041372553
-0.19615705 -0.96098191 0.033529416
-0.19615705 -0.96098191 0.025686279
-0.19615705 -0.96098191 0.017843127
-0.18477589 -0.92346328 0.40215686
-0.18477589 -0.92346328 0.39431372
-0.18477589 -0.92346328 0.38647059
-0.18477589 -0.92346328 0.37862745
-0.18477589 -0.92346328 0.37078431
-0.18477589 -0.92346328 0.36294118
-0.18477589 -0.92346328 0.35509804
-0.18477589 -0.92346328 0.3472549
-0.18477589 -0.92346328 0.33941177
-0.18477589 -0.92346328 0.33156863
-0.18477589 -0.92346328 0.32372549
-0.18477589 -0.92346328 0.31588235
-0.18477589 -0.92346328 0.30803922
-0.18477589 -0.92346328 0.30019608
-0.18477589 -0.92346328 0.29235294
-0.18477589 -0.92346328 0.28450981
-0.18477589 -0.92346328 0.27666667
-0.18477589 -0.92346328 0.26882353
-0.18477589 -0.92346328 0.2609804
-0.18477589 -0.92346328 0.25313726
-0.18477589 -0.92346328 0.24529412
-0.18477589 -0.92346328 0.23745099
-0.18477589 -0.92346328 0.22960785
-0.18477589 -0.92346328 0.22176471
-0.18477589 -0.92346328 0.21392158
-0.18477589 -0.92346328 0.20607844
-0.18477589 -0.92346328 0.1982353
-0.18477589 -0.92346328 0.19039215
-0.18477589 -0.92346328 0.18254901
-0.18477589 -0.92346328 0.17470588
-0.18477589 -0.92346328 0.16686274
-0.18477589 -0.92346328 0.1590196
-0.18477589 -0.92346328 0.15117647
-0.18477589 -0.92346328 0.14333335
-0.18477589 -0.92346328 0.13549021
-0.18477589 -0.92346328 0.12764707
-0.18477589 -0.92346328 0.11980393
-0.18477589 -0.92346328 0.11196079
-0.18477589 -0.92346328 0.10411765
-0.18477589 -0.92346328 0.09627451
-0.18477589 -0.92346328 0.088431373
-0.18477589 -0.92346328 0.080588236
-0.18477589 -0.92346328 0.0727451
-0.18477589 -0.92346328 0.064901963
-0.18477589 -0.92346328 0.057058826
-0.18477589 -0.92346328 0.049215689
-0.18477589 -0.92346328 0.041372553
-0.18477589 -0.92346328 0.033529416
-0.18477589 -0.92346328 0.025686279
-0.18477589 -0.92346328 0.017843127
-0.16629395 -0.88888597 0.40215686
-0.16629395 -0.88888597 0.39431372
-0.16629395 -0.88888597 0.38647059
-0.16629395 -0.88888597 0.37862745
-0.16629395 -0.88888597 0.37078431
-0.16629395 -0.88888597 0.36294118
-0.16629395 -0.88888597 0.35509804
-0.16629395 -0.88888597 0.3472549
-0.16629395 -0.88888597 0.33941177
-0.16629395 -0.88888597 0.33156863
-0.16629395 -0.88888597 0.32372549
-0.16629395 -0.88888597 0.31588235
-0.16629395 -0.88888597 0.30803922
-0.16629395 -0.88888597 0.30019608
-0.16629395 -0.88888597 0.29235294
-0.16629395 -0.88888597 0.28450981
-0.16629395 -0.88888597 0.27666667
-0.16629395 -0.88888597 0.26882353
-0.16629395 -0.88888597 0.2609804
-0.16629395 -0.88888597 0.25313726
-0.16629395 -0.88888597 0.24529412
-0.16629395 -0.88888597 0.23745099
-0.16629395 -0.88888597 0.22960785
-0.16629395 -0.88888597 0.22176471
-0.16629395 -0.88888597 0.21392158
-0.16629395 -0.88888597 0.20607844
-0.16629395 -0.88888597 0.1982353
-0.16629395 -0.88888597 0.19039215
-0.16629395 -0.88888597 0.18254901
-0.16629395 -0.88888597 0.17470588
-0.16629395 -0.88888597 0.16686274
-0.16629395 -0.88888597 0.1590196
-0.16629395 -0.88888597 0.15117647
-0.16629395 -0.88888597 0.14333335
-0.16629395 -0.88888597 0.13549021
-0.16629395 -0.88888597 0.12764707
-0.16629395 -0.88888597 0.11980393
-0.16629395 -0.88888597 0.11196079
-0.16629395 -0.88888597 0.10411765
-0.16629395 -0.88888597 0.09627451
-0.16629395 -0.88888597 0.088431373
-0.16629395 -0.88888597 0.080588236
-0.16629395 -0.88888597 0.0727451
-0.16629395 -0.88888597 0.064901963
-0.16629395 -0.88888597 0.057058826
-0.16629395 -0.88888597 0.049215689
-0.16629395 -0.88888597 0.041372553
-0.16629395 -0.88888597 0.033529416
-0.16629395 -0.88888597 0.025686279
-0.16629395 -0.88888597 0.017843127
-0.14142138 -0.85857868 0.40215686
-0.14142138 -0.85857868 0.39431372
-0.14142138 -0.85857868 0.38647059
-0.14142138 -0.85857868 0.37862745
-0.14142138 -0.85857868 0.37078431
-0.14142138 -0.85857868 0.36294118
-0.14142138 -0.85857868 0.35509804
-0.14142138 -0.85857868 0.3472549
-0.14142138 -0.85857868 0.33941177
-0.14142138 -0.85857868 0.33156863
-0.14142138 -0.85857868 0.32372549
-0.14142138 -0.85857868 0.31588235
-0.14142138 -0.85857868 0.30803922
-0.14142138 -0.85857868 0.30019608
-0.14142138 -0.85857868 0.29235294
-0.14142138 -0.85857868 0.28450981
-0.14142138 -0.85857868 0.27666667
-0.14142138 -0.85857868 0.26882353
-0.14142138 -0.85857868 0.2609804
-0.14142138 -0.85857868 0.25313726
-0.14142138 -0.85857868 0.24529412
-0.14142138 -0.85857868 0.23745099
-0.14142138 -0.85857868 0.22960785
-0.14142138 -0.85857868 0.22176471
-0.14142138 -0.85857868 0.21392158
-0.14142138 -0.85857868 0.20607844
-0.14142138 -0.85857868 0.1982353
-0.14142138 -0.85857868 0.19039215
-0.14142138 -0.85857868 0.18254901
-0.14142138 -0.85857868 0.17470588
-0.14142138 -0.85857868 0.16686274
-0.14142138 -0.85857868 0.1590196
-0.14142138 -0.85857868 0.15117647
-0.14142138 -0.85857868 0.14333335
-0.14142138 -0.85857868 0.13549021
-0.14142138 -0.85857868 0.12764707
-0.14142138 -0.85857868 0.11980393
-0.14142138 -0.85857868 0.11196079
-0.14142138 -0.85857868 0.10411765
-0.14142138 -0.85857868 0.09627451
-0.14142138 -0.85857868 0.088431373
-0.14142138 -0.85857868 0.080588236
-0.14142138 -0.85857868 0.0727451
-0.14142138 -0.85857868 0.064901963
-0.14142138 -0.85857868 0.057058826
-0.14142138 -0.85857868 0.049215689
-0.14142138 -0.85857868 0.041372553
-0.14142138 -0.85857868 0.033529416
-0.14142138 -0.85857868 0.025686279
-0.14142138 -0.85857868 0.017843127
-0.11111406 -0.83370608 0.40215686
-0.11111406 -0.83370608 0.39431372
-0.11111406 -0.83370608 0.38647059
-0.11111406 -0.83370608 0.37862745
-0.11111406 -0.83370608 0.37078431
-0.11111406 -0.83370608 0.36294118
-0.11111406 -0.83370608 0.35509804
-0.11111406 -0.83370608 0.3472549
-0.11111406 -0.83370608 0.33941177
-0.11111406 -0.83370608 0.33156863
-0.11111406 -0.83370608 0.32372549
-0.11111406 -0.83370608 0.31588235
-0.11111406 -0.83370608 0.30803922
-0.11111406 -0.83370608 0.30019608
-0.11111406 -0.83370608 0.29235294
-0.11111406 -0.83370608 0.28450981
-0.11111406 -0.83370608 0.27666667
-0.11111406 -0.83370608 0.26882353
-0.11111406 -0.83370608 0.2609804
-0.11111406 -0.83370608 0.25313726
-0.11111406 -0.83370608 0.24529412
-0.11111406 -0.83370608 0.23745099
-0.11111406 -0.83370608 0.22960785
-0.11111406 -0.83370608 0.22176471
-0.11111406 -0.83370608 0.21392158
-0.11111406 -0.83370608 0.20607844
-0.11111406 -0.83370608 0.1982353
-0.11111406 -0.83370608 0.19039215
-0.11111406 -0.83370608 0.18254901
-0.11111406 -0.83370608 0.17470588
-0.11111406 -0.83370608 0.16686274
-0.11111406 -0.83370608 0.1590196
-0.11111406 -0.83370608 0.15117647
-0.11111406 -0.83370608 0.14333335
-0.11111406 -0.83370608 0.13549021
-0.11111406 -0.83370608 0.12764707
-0.11111406 -0.83370608 0.11980393
-0.11111406 -0.83370608 0.11196079
-0.11111406 -0.83370608 0.10411765
-0.11111406 -0.83370608 0.09627451
-0.11111406 -0.83370608 0.088431373
-0.11111406 -0.83370608 0.080588236
-0.11111406 -0.83370608 0.0727451
-0.11111406 -0.83370608 0.064901963
-0.11111406 -0.83370608 0.057058826
-0.11111406 -0.83370608 0.049215689
-0.11111406 -0.83370608 0.041372553
-0.11111406 -0.83370608 0.033529416
-0.11111406 -0.83370608 0.025686279
-0.11111406 -0.83370608 0.017843127
-0.076536685 -0.81522405 0.40215686
-0.076536685 -0.81522405 0.39431372
-0.076536685 -0.81522405 0.38647059
-0.076536685 -0.81522405 0.37862745
-0.076536685 -0.81522405 0.37078431
-0.076536685 -0.81522405 0.36294118
-0.076536685 -0.81522405 0.35509804
-0.076536685 -0.81522405 0.3472549
-0.076536685 -0.81522405 0.33941177
-0.076536685 -0.81522405 0.33156863
-0.076536685 -0.81522405 0.32372549
-0.076536685 -0.81522405 0.31588235
-0.076536685 -0.81522405 0.30803922
-0.076536685 -0.81522405 0.30019608
-0.076536685 -0.81522405 0.29235294
-0.076536685 -0.81522405 0.28450981
-0.076536685 -0.81522405 0.27666667
-0.076536685 -0.81522405 0.26882353
-0.076536685 -0.81522405 0.2609804
-0.076536685 -0.81522405 0.25313726
-0.076536685 -0.81522405 0.24529412
-0.076536685 -0.81522405 0.23745099
-0.076536685 -0.81522405 0.22960785
-0.076536685 -0.81522405 0.22176471
-0.076536685 -0.81522405 0.21392158
-0.076536685 -0.81522405 0.20607844
-0.076536685 -0.81522405 0.1982353
-0.076536685 -0.81522405 0.19039215
-0.076536685 -0.81522405 0.18254901
-0.076536685 -0.81522405 0.17470588
-0.076536685 -0.81522405 0.16686274
-0.076536685 -0.81522405 0.1590196
-0.076536685 -0.81522405 0.15117647
-0.076536685 -0.81522405 0.14333335
-0.076536685 -0.81522405 0.13549021
-0.076536685 -0.81522405 0.12764707
-0.076536685 -0.81522405 0.11980393
-0.076536685 -0.81522405 0.11196079
-0.076536685 -0.81522405 0.10411765
-0.076536685 -0.81522405 0.09627451
-0.076536685 -0.81522405 0.088431373
-0.076536685 -0.81522405 0.080588236
-0.076536685 -0.81522405 0.0727451
-0.076536685 -0.81522405 0.064901963
-0.076536685 -0.81522405 0.057058826
-0.076536685 -0.81522405 0.049215689
-0.076536685 -0.81522405 0.041372553
-0.076536685 -0.81522405 0.033529416
-0.076536685 -0.81522405 0.025686279
-0.076536685 -0.81522405 0.017843127
-0.039018046 -0.8038429 0.40215686
-0.039018046 -0.8038429 0.39431372
-0.039018046 -0.8038429 0.38647059
-0.039018046 -0.8038429 0.37862745
-0.039018046 -0.8038429 0.37078431
-0.039018046 -0.8038429 0.36294118
-0.039018046 -0.8038429 0.35509804
-0.039018046 -0.8038429 0.3472549
-0.039018046 -0.8038429 0.33941177
-0.039018046 -0.8038429 0.33156863
-0.039018046 -0.8038429 0.32372549
-0.039018046 -0.8038429 0.31588235
-0.039018046 -0.8038429 0.30803922
-0.039018046 -0.8038429 0.30019608
-0.039018046 -0.8038429 0.29235294
-0.039018046 -0.8038429 0.28450981
-0.039018046 -0.8038429 0.27666667
-0.039018046 -0.8038429 0.26882353
-0.039018046 -0.8038429 0.2609804
-0.039018046 -0.8038429 0.25313726
-0.039018046 -0.8038429 0.24529412
-0.039018046 -0.8038429 0.23745099
-0.039018046 -0.8038429 0.22960785
-0.039018046 -0.8038429 0.22176471
-0.039018046 -0.8038429 0.21392158
-0.039018046 -0.8038429 0.20607844
-0.039018046 -0.8038429 0.1982353
-0.039018046 -0.8038429 0.19039215
-0.039018046 -0.8038429 0.18254901
-0.039018046 -0.8038429 0.17470588
-0.039018046 -0.8038429 0.16686274
-0.039018046 -0.8038429 0.1590196
-0.039018046 -0.8038429 0.15117647
-0.039018046 -0.8038429 0.14333335
-0.039018046 -0.8038429 0.13549021
-0.039018046 -0.8038429 0.12764707
-0.039018046 -0.8038429 0.11980393
-0.039018046 -0.8038429 0.11196079
-0.039018046 -0.8038429 0.10411765
-0.039018046 -0.8038429 0.09627451
-0.039018046 -0.8038429 0.088431373
-0.039018046 -0.8038429 0.080588236
-0.039018046 -0.8038429 0.0727451
-0.039018046 -0.8038429 0.064901963
-0.039018046 -0.8038429 0.057058826
-0.039018046 -0.8038429 0.049215689
-0.039018046 -0.8038429 0.041372553
-0.039018046 -0.8038429 0.033529416
-0.039018046 -0.8038429 0.025686279
-0.039018046 -0.8038429 0.017843127
0.0039018006 -0.98038429 0.41000003
-5.3644178e-09 -0.98000002 0.41000003
0.0076536657 -0.98152238 0.41000003
0.011111403 -0.9833706 0.41000003
0.014142132 -0.98585784 0.41000003
0.016629387 -0.98888862 0.41000003
0.018477583 -0.99234635 0.41000003
0.019615699 -0.99609822 0.41000003
0.019999994 -1 0.41000003
0.019615699 -1.0039018 0.41000003
0.018477583 -1.0076537 0.41000003
0.016629387 -1.0111114 0.41000003
0.014142132 -1.0141422 0.41000003
0.011111403 -1.0166295 0.41000003
0.0076536657 -1.0184776 0.41000003
0.0039018006 -1.0196157 0.41000003
-7.1128738e-09 -1.02 0.41000003
-0.0039018095 -1.0196157 0.41000003
-0.0076536718 -1.0184776 0.41000003
-0.011111415 -1.0166293 0.41000003
-0.014142144 -1.0141422 0.41000003
-0.016629398 -1.0111114 0.41000003
-0.018477594 -1.0076537 0.41000003
-0.01961571 -1.0039018 0.41000003
-0.020000005 -1 0.41000003
-0.01961571 -0.99609816 0.41000003
-0.018477594 -0.99234635 0.41000003
-0.016629398 -0.98888862 0.41000003
-0.014142144 -0.98585784 0.41000003
-0.011111415 -0.9833706 0.41000003
-0.0076536718 -0.98152238 0.41000003
