0 -2 1.3441175
0 -2 1.3833332
0 -2 1.4225489
0 -2 1.4617646
0 -2 1.5009803
0 -2 1.540196
0 -2 1.5794117
0 -2 1.6186273
0 -2 1.6578431
0 -2 1.6970587
0 -2 1.7362745
0 -2 1.77549
0 -2 1.8147058
0 -2 1.8539214
0 -2 1.8931372
0 -2 1.9323528
0 -2 1.9715686
0 -2 2.0107841
0.19509032 -2.0192146 2.0107841
0.19509032 -2.0192146 1.9715686
0.19509032 -2.0192146 1.9323529
0.19509032 -2.0192146 1.8931372
0.19509032 -2.0192146 1.8539215
0.19509032 -2.0192146 1.8147058
0.19509032 -2.0192146 1.7754902
0.19509032 -2.0192146 1.7362745
0.19509032 -2.0192146 1.6970588
0.19509032 -2.0192146 1.6578431
0.19509032 -2.0192146 1.6186274
0.19509032 -2.0192146 1.5794117
0.19509032 -2.0192146 1.5401961
0.19509032 -2.0192146 1.5009804
0.19509032 -2.0192146 1.4617647
0.19509032 -2.0192146 1.422549
0.19509032 -2.0192146 1.3833333
0.19509032 -2.0192146 1.3441176
0.19509032 -2.0192146 1.304902
0.19509032 -2.0192146 1.2656863
0.19509032 -2.0192146 1.2264706
0.19509032 -2.0192146 1.1872549
0.19509032 -2.0192146 1.1480392
0.19509032 -2.0192146 1.1088235
0.19509032 -2.0192146 1.0696079
0.19509032 -2.0192146 1.0303922
0.19509032 -2.0192146 0.9911765
0.19509032 -2.0192146 0.9519608
0.19509032 -2.0192146 0.9127451
0.19509032 -2.0192146 0.87352943
0.19509032 -2.0192146 0.83431375
0.19509032 -2.0192146 0.79509807
0.19509032 -2.0192146 0.7558824
0.19509032 -2.0192146 0.7166667
0.19509032 -2.0192146 0.677451
0.19509032 -2.0192146 0.63823533
0.19509032 -2.0192146 0.59901965
0.19509032 -2.0192146 0.55980396
0.19509032 -2.0192146 0.5205882
0.19509032 -2.0192146 0.48137254
0.19509032 -2.0192146 0.44215685
0.19509032 -2.0192146 0.40294117
0.19509032 -2.0192146 0.36372548
0.19509032 -2.0192146 0.3245098
0.19509032 -2.0192146 0.28529412
0.19509032 -2.0192146 0.24607843
0.19509032 -2.0192146 0.20686275
0.19509032 -2.0192146 0.16764706
0.19509032 -2.0192146 0.12843138
0.19509032 -2.0192146 0.089215636
0.38268346 -2.0761204 2.0107841
0.38268346 -2.0761204 1.9715686
0.38268346 -2.0761204 1.9323529
0.38268346 -2.0761204 1.8931372
0.38268346 -2.0761204 1.8539215
0.38268346 -2.0761204 1.8147058
0.38268346 -2.0761204 1.7754902
0.38268346 -2.0761204 1.7362745
0.38268346 -2.0761204 1.6970588
0.38268346 -2.0761204 1.6578431
0.38268346 -2.0761204 1.6186274
0.38268346 -2.0761204 1.5794117
0.38268346 -2.0761204 1.5401961
0.38268346 -2.0761204 1.5009804
0.38268346 -2.0761204 1.4617647
0.38268346 -2.0761204 1.422549
0.38268346 -2.0761204 1.3833333
0.38268346 -2.0761204 1.3441176
0.38268346 -2.0761204 1.304902
0.38268346 -2.0761204 1.2656863
0.38268346 -2.0761204 1.2264706
0.38268346 -2.0761204 1.1872549
0.38268346 -2.0761204 1.1480392
0.38268346 -2.0761204 1.1088235
0.38268346 -2.0761204 1.0696079
0.38268346 -2.0761204 1.0303922
0.38268346 -2.0761204 0.9911765
0.38268346 -2.0761204 0.9519608
0.38268346 -2.0761204 0.9127451
0.38268346 -2.0761204 0.87352943
0.38268346 -2.0761204 0.83431375
0.38268346 -2.0761204 0.79509807
0.38268346 -2.0761204 0.7558824
0.38268346 -2.0761204 0.7166667
0.38268346 -2.0761204 0.677451
0.38268346 -2.0761204 0.63823533
0.38268346 -2.0761204 0.59901965
0.38268346 -2.0761204 0.55980396
0.38268346 -2.0761204 0.5205882
0.38268346 -2.0761204 0.48137254
0.38268346 -2.0761204 0.44215685
0.38268346 -2.0761204 0.40294117
0.38268346 -2.0761204 0.36372548
0.38268346 -2.0761204 0.3245098
0.38268346 -2.0761204 0.28529412
0.38268346 -2.0761204 0.24607843
0.38268346 -2.0761204 0.20686275
0.38268346 -2.0761204 0.16764706
0.38268346 -2.0761204 0.12843138
0.38268346 -2.0761204 0.089215636
0.55557024 -2.1685305 2.0107841
0.55557024 -2.1685305 1.9715686
0.55557024 -2.1685305 1.9323529
0.55557024 -2.1685305 1.8931372
0.55557024 -2.1685305 1.8539215
0.55557024 -2.1685305 1.8147058
0.55557024 -2.1685305 1.7754902
0.55557024 -2.1685305 1.7362745
0.55557024 -2.1685305 1.6970588
0.55557024 -2.1685305 1.6578431
0.55557024 -2.1685305 1.6186274
0.55557024 -2.1685305 1.5794117
0.55557024 -2.1685305 1.5401961
0.55557024 -2.1685305 1.5009804
0.55557024 -2.1685305 1.4617647
0.55557024 -2.1685305 1.422549
0.55557024 -2.1685305 1.3833333
0.55557024 -2.1685305 1.3441176
0.55557024 -2.1685305 1.304902
0.55557024 -2.1685305 1.2656863
0.55557024 -2.1685305 1.2264706
0.55557024 -2.1685305 1.1872549
0.55557024 -2.1685305 1.1480392
0.55557024 -2.1685305 1.1088235
0.55557024 -2.1685305 1.0696079
0.55557024 -2.1685305 1.0303922
0.55557024 -2.1685305 0.9911765
0.55557024 -2.1685305 0.9519608
0.55557024 -2.1685305 0.9127451
0.55557024 -2.1685305 0.87352943
0.55557024 -2.1685305 0.83431375
0.55557024 -2.1685305 0.79509807
0.55557024 -2.1685305 0.7558824
0.55557024 -2.1685305 0.7166667
0.55557024 -2.1685305 0.677451
0.55557024 -2.1685305 0.63823533
0.55557024 -2.1685305 0.59901965
0.55557024 -2.1685305 0.55980396
0.55557024 -2.1685305 0.5205882
0.55557024 -2.1685305 0.48137254
0.55557024 -2.1685305 0.44215685
0.55557024 -2.1685305 0.40294117
0.55557024 -2.1685305 0.36372548
0.55557024 -2.1685305 0.3245098
0.55557024 -2.1685305 0.28529412
0.55557024 -2.1685305 0.24607843
0.55557024 -2.1685305 0.20686275
0.55557024 -2.1685305 0.16764706
0.55557024 -2.1685305 0.12843138
0.55557024 -2.1685305 0.089215636
0.70710677 -2.2928932 2.0107841
0.70710677 -2.2928932 1.9715686
0.70710677 -2.2928932 1.9323529
0.70710677 -2.2928932 1.8931372
0.70710677 -2.2928932 1.8539215
0.70710677 -2.2928932 1.8147058
0.70710677 -2.2928932 1.7754902
0.70710677 -2.2928932 1.7362745
0.70710677 -2.2928932 1.6970588
0.70710677 -2.2928932 1.6578431
0.70710677 -2.2928932 1.6186274
0.70710677 -2.2928932 1.5794117
0.70710677 -2.2928932 1.5401961
0.70710677 -2.2928932 1.5009804
0.70710677 -2.2928932 1.4617647
0.70710677 -2.2928932 1.422549
0.70710677 -2.2928932 1.3833333
0.70710677 -2.2928932 1.3441176
0.70710677 -2.2928932 1.304902
0.70710677 -2.2928932 1.2656863
0.70710677 -2.2928932 1.2264706
0.70710677 -2.2928932 1.1872549
0.70710677 -2.2928932 1.1480392
0.70710677 -2.2928932 1.1088235
0.70710677 -2.2928932 1.0696079
0.70710677 -2.2928932 1.0303922
0.70710677 -2.2928932 0.9911765
0.70710677 -2.2928932 0.9519608
0.70710677 -2.2928932 0.9127451
0.70710677 -2.2928932 0.87352943
0.70710677 -2.2928932 0.83431375
0.70710677 -2.2928932 0.79509807
0.70710677 -2.2928932 0.7558824
0.70710677 -2.2928932 0.7166667
0.70710677 -2.2928932 0.677451
0.70710677 -2.2928932 0.63823533
0.70710677 -2.2928932 0.59901965
0.70710677 -2.2928932 0.55980396
0.70710677 -2.2928932 0.5205882
0.70710677 -2.2928932 0.48137254
0.70710677 -2.2928932 0.44215685
0.70710677 -2.2928932 0.40294117
0.70710677 -2.2928932 0.36372548
0.70710677 -2.2928932 0.3245098
0.70710677 -2.2928932 0.28529412
0.70710677 -2.2928932 0.24607843
0.70710677 -2.2928932 0.20686275
0.70710677 -2.2928932 0.16764706
0.70710677 -2.2928932 0.12843138
0.70710677 -2.2928932 0.089215636
0.8314696 -2.4444299 2.0107841
0.8314696 -2.4444299 1.9715686
0.8314696 -2.4444299 1.9323529
0.8314696 -2.4444299 1.8931372
0.8314696 -2.4444299 1.8539215
0.8314696 -2.4444299 1.8147058
0.8314696 -2.4444299 1.7754902
0.8314696 -2.4444299 1.7362745
0.8314696 -2.4444299 1.6970588
0.8314696 -2.4444299 1.6578431
0.8314696 -2.4444299 1.6186274
0.8314696 -2.4444299 1.5794117
0.8314696 -2.4444299 1.5401961
0.8314696 -2.4444299 1.5009804
0.8314696 -2.4444299 1.4617647
0.8314696 -2.4444299 1.422549
0.8314696 -2.4444299 1.3833333
0.8314696 -2.4444299 1.3441176
0.8314696 -2.4444299 1.304902
0.8314696 -2.4444299 1.2656863
0.8314696 -2.4444299 1.2264706
0.8314696 -2.4444299 1.1872549
0.8314696 -2.4444299 1.1480392
0.8314696 -2.4444299 1.1088235
0.8314696 -2.4444299 1.0696079
0.8314696 -2.4444299 1.0303922
0.8314696 -2.4444299 0.9911765
0.8314696 -2.4444299 0.9519608
0.8314696 -2.4444299 0.9127451
0.8314696 -2.4444299 0.87352943
0.8314696 -2.4444299 0.83431375
0.8314696 -2.4444299 0.79509807
0.8314696 -2.4444299 0.7558824
0.8314696 -2.4444299 0.7166667
0.8314696 -2.4444299 0.677451
0.8314696 -2.4444299 0.63823533
0.8314696 -2.4444299 0.59901965
0.8314696 -2.4444299 0.55980396
0.8314696 -2.4444299 0.5205882
0.8314696 -2.4444299 0.48137254
0.8314696 -2.4444299 0.44215685
0.8314696 -2.4444299 0.40294117
0.8314696 -2.4444299 0.36372548
0.8314696 -2.4444299 0.3245098
0.8314696 -2.4444299 0.28529412
0.8314696 -2.4444299 0.24607843
0.8314696 -2.4444299 0.20686275
0.8314696 -2.4444299 0.16764706
0.8314696 -2.4444299 0.12843138
0.8314696 -2.4444299 0.089215636
0.9238795 -2.6173165 2.0107841
0.9238795 -2.6173165 1.9715686
0.9238795 -2.6173165 1.9323529
0.9238795 -2.6173165 1.8931372
0.9238795 -2.6173165 1.8539215
0.9238795 -2.6173165 1.8147058
0.9238795 -2.6173165 1.7754902
0.9238795 -2.6173165 1.7362745
0.9238795 -2.6173165 1.6970588
0.9238795 -2.6173165 1.6578431
0.9238795 -2.6173165 1.6186274
0.9238795 -2.6173165 1.5794117
0.9238795 -2.6173165 1.5401961
0.9238795 -2.6173165 1.5009804
0.9238795 -2.6173165 1.4617647
0.9238795 -2.6173165 1.422549
0.9238795 -2.6173165 1.3833333
0.9238795 -2.6173165 1.3441176
0.9238795 -2.6173165 1.304902
0.9238795 -2.6173165 1.2656863
0.9238795 -2.6173165 1.2264706
0.9238795 -2.6173165 1.1872549
0.9238795 -2.6173165 1.1480392
0.9238795 -2.6173165 1.1088235
0.9238795 -2.6173165 1.0696079
0.9238795 -2.6173165 1.0303922
0.9238795 -2.6173165 0.9911765
0.9238795 -2.6173165 0.9519608
0.9238795 -2.6173165 0.9127451
0.9238795 -2.6173165 0.87352943
0.9238795 -2.6173165 0.83431375
0.9238795 -2.6173165 0.79509807
0.9238795 -2.6173165 0.7558824
0.9238795 -2.6173165 0.7166667
0.9238795 -2.6173165 0.677451
0.9238795 -2.6173165 0.63823533
0.9238795 -2.6173165 0.59901965
0.9238795 -2.6173165 0.55980396
0.9238795 -2.6173165 0.5205882
0.9238795 -2.6173165 0.48137254
0.9238795 -2.6173165 0.44215685
0.9238795 -2.6173165 0.40294117
0.9238795 -2.6173165 0.36372548
0.9238795 -2.6173165 0.3245098
0.9238795 -2.6173165 0.28529412
0.9238795 -2.6173165 0.24607843
0.9238795 -2.6173165 0.20686275
0.9238795 -2.6173165 0.16764706
0.9238795 -2.6173165 0.12843138
0.9238795 -2.6173165 0.089215636
0.98078525 -2.8049097 2.0107841
0.98078525 -2.8049097 1.9715686
0.98078525 -2.8049097 1.9323529
0.98078525 -2.8049097 1.8931372
0.98078525 -2.8049097 1.8539215
0.98078525 -2.8049097 1.8147058
0.98078525 -2.8049097 1.7754902
0.98078525 -2.8049097 1.7362745
0.98078525 -2.8049097 1.6970588
0.98078525 -2.8049097 1.6578431
0.98078525 -2.8049097 1.6186274
0.98078525 -2.8049097 1.5794117
0.98078525 -2.8049097 1.5401961
0.98078525 -2.8049097 1.5009804
0.98078525 -2.8049097 1.4617647
0.98078525 -2.8049097 1.422549
0.98078525 -2.8049097 1.3833333
0.98078525 -2.8049097 1.3441176
0.98078525 -2.8049097 1.304902
0.98078525 -2.8049097 1.2656863
0.98078525 -2.8049097 1.2264706
0.98078525 -2.8049097 1.1872549
0.98078525 -2.8049097 1.1480392
0.98078525 -2.8049097 1.1088235
0.98078525 -2.8049097 1.0696079
0.98078525 -2.8049097 1.0303922
0.98078525 -2.8049097 0.9911765
0.98078525 -2.8049097 0.9519608
0.98078525 -2.8049097 0.9127451
0.98078525 -2.8049097 0.87352943
0.98078525 -2.8049097 0.83431375
0.98078525 -2.8049097 0.79509807
0.98078525 -2.8049097 0.7558824
0.98078525 -2.8049097 0.7166667
0.98078525 -2.8049097 0.677451
0.98078525 -2.8049097 0.63823533
0.98078525 -2.8049097 0.59901965
0.98078525 -2.8049097 0.55980396
0.98078525 -2.8049097 0.5205882
0.98078525 -2.8049097 0.48137254
0.98078525 -2.8049097 0.44215685
0.98078525 -2.8049097 0.40294117
0.98078525 -2.8049097 0.36372548
0.98078525 -2.8049097 0.3245098
0.98078525 -2.8049097 0.28529412
0.98078525 -2.8049097 0.24607843
0.98078525 -2.8049097 0.20686275
0.98078525 -2.8049097 0.16764706
0.98078525 -2.8049097 0.12843138
0.98078525 -2.8049097 0.089215636
1 -3 2.0107841
1 -3 1.9715686
1 -3 1.9323529
1 -3 1.8931372
1 -3 1.8539215
1 -3 1.8147058
1 -3 1.7754902
1 -3 1.7362745
1 -3 1.6970588
1 -3 1.6578431
1 -3 1.6186274
1 -3 1.5794117
1 -3 1.5401961
1 -3 1.5009804
1 -3 1.4617647
1 -3 1.422549
1 -3 1.3833333
1 -3 1.3441176
1 -3 1.304902
1 -3 1.2656863
1 -3 1.2264706
1 -3 1.1872549
1 -3 1.1480392
1 -3 1.1088235
1 -3 1.0696079
1 -3 1.0303922
1 -3 0.9911765
1 -3 0.9519608
1 -3 0.9127451
1 -3 0.87352943
1 -3 0.83431375
1 -3 0.79509807
1 -3 0.7558824
1 -3 0.7166667
1 -3 0.677451
1 -3 0.63823533
1 -3 0.59901965
1 -3 0.55980396
1 -3 0.5205882
1 -3 0.48137254
1 -3 0.44215685
1 -3 0.40294117
1 -3 0.36372548
1 -3 0.3245098
1 -3 0.28529412
1 -3 0.24607843
1 -3 0.20686275
1 -3 0.16764706
1 -3 0.12843138
1 -3 0.089215636
0.98078525 -3.1950903 2.0107841
0.98078525 -3.1950903 1.9715686
0.98078525 -3.1950903 1.9323529
0.98078525 -3.1950903 1.8931372
0.98078525 -3.1950903 1.8539215
0.98078525 -3.1950903 1.8147058
0.98078525 -3.1950903 1.7754902
0.98078525 -3.1950903 1.7362745
0.98078525 -3.1950903 1.6970588
0.98078525 -3.1950903 1.6578431
0.98078525 -3.1950903 1.6186274
0.98078525 -3.1950903 1.5794117
0.98078525 -3.1950903 1.5401961
0.98078525 -3.1950903 1.5009804
0.98078525 -3.1950903 1.4617647
0.98078525 -3.1950903 1.422549
0.98078525 -3.1950903 1.3833333
0.98078525 -3.1950903 1.3441176
0.98078525 -3.1950903 1.304902
0.98078525 -3.1950903 1.2656863
0.98078525 -3.1950903 1.2264706
0.98078525 -3.1950903 1.1872549
0.98078525 -3.1950903 1.1480392
0.98078525 -3.1950903 1.1088235
0.98078525 -3.1950903 1.0696079
0.98078525 -3.1950903 1.0303922
0.98078525 -3.1950903 0.9911765
0.98078525 -3.1950903 0.9519608
0.98078525 -3.1950903 0.9127451
0.98078525 -3.1950903 0.87352943
0.98078525 -3.1950903 0.83431375
0.98078525 -3.1950903 0.79509807
0.98078525 -3.1950903 0.7558824
0.98078525 -3.1950903 0.7166667
0.98078525 -3.1950903 0.677451
0.98078525 -3.1950903 0.63823533
0.98078525 -3.1950903 0.59901965
0.98078525 -3.1950903 0.55980396
0.98078525 -3.1950903 0.5205882
0.98078525 -3.1950903 0.48137254
0.98078525 -3.1950903 0.44215685
0.98078525 -3.1950903 0.40294117
0.98078525 -3.1950903 0.36372548
0.98078525 -3.1950903 0.3245098
0.98078525 -3.1950903 0.28529412
0.98078525 -3.1950903 0.24607843
0.98078525 -3.1950903 0.20686275
0.98078525 -3.1950903 0.16764706
0.98078525 -3.1950903 0.12843138
0.98078525 -3.1950903 0.089215636
0.92387956 -3.3826833 2.0107841
0.92387956 -3.3826833 1.9715686
0.92387956 -3.3826833 1.9323529
0.92387956 -3.3826833 1.8931372
0.92387956 -3.3826833 1.8539215
0.92387956 -3.3826833 1.8147058
0.92387956 -3.3826833 1.7754902
0.92387956 -3.3826833 1.7362745
0.92387956 -3.3826833 1.6970588
0.92387956 -3.3826833 1.6578431
0.92387956 -3.3826833 1.6186274
0.92387956 -3.3826833 1.5794117
0.92387956 -3.3826833 1.5401961
0.92387956 -3.3826833 1.5009804
0.92387956 -3.3826833 1.4617647
0.92387956 -3.3826833 1.422549
0.92387956 -3.3826833 1.3833333
0.92387956 -3.3826833 1.3441176
0.92387956 -3.3826833 1.304902
0.92387956 -3.3826833 1.2656863
0.92387956 -3.3826833 1.2264706
0.92387956 -3.3826833 1.1872549
0.92387956 -3.3826833 1.1480392
0.92387956 -3.3826833 1.1088235
0.92387956 -3.3826833 1.0696079
0.92387956 -3.3826833 1.0303922
0.92387956 -3.3826833 0.9911765
0.92387956 -3.3826833 0.9519608
0.92387956 -3.3826833 0.9127451
0.92387956 -3.3826833 0.87352943
0.92387956 -3.3826833 0.83431375
0.92387956 -3.3826833 0.79509807
0.92387956 -3.3826833 0.7558824
0.92387956 -3.3826833 0.7166667
0.92387956 -3.3826833 0.677451
0.92387956 -3.3826833 0.63823533
0.92387956 -3.3826833 0.59901965
0.92387956 -3.3826833 0.55980396
0.92387956 -3.3826833 0.5205882
0.92387956 -3.3826833 0.48137254
0.92387956 -3.3826833 0.44215685
0.92387956 -3.3826833 0.40294117
0.92387956 -3.3826833 0.36372548
0.92387956 -3.3826833 0.3245098
0.92387956 -3.3826833 0.28529412
0.92387956 -3.3826833 0.24607843
0.92387956 -3.3826833 0.20686275
0.92387956 -3.3826833 0.16764706
0.92387956 -3.3826833 0.12843138
0.92387956 -3.3826833 0.089215636
0.83146966 -3.5555701 2.0107841
0.83146966 -3.5555701 1.9715686
0.83146966 -3.5555701 1.9323529
0.83146966 -3.5555701 1.8931372
0.83146966 -3.5555701 1.8539215
0.83146966 -3.5555701 1.8147058
0.83146966 -3.5555701 1.7754902
0.83146966 -3.5555701 1.7362745
0.83146966 -3.5555701 1.6970588
0.83146966 -3.5555701 1.6578431
0.83146966 -3.5555701 1.6186274
0.83146966 -3.5555701 1.5794117
0.83146966 -3.5555701 1.5401961
0.83146966 -3.5555701 1.5009804
0.83146966 -3.5555701 1.4617647
0.83146966 -3.5555701 1.422549
0.83146966 -3.5555701 1.3833333
0.83146966 -3.5555701 1.3441176
0.83146966 -3.5555701 1.304902
0.83146966 -3.5555701 1.2656863
0.83146966 -3.5555701 1.2264706
0.83146966 -3.5555701 1.1872549
0.83146966 -3.5555701 1.1480392
0.83146966 -3.5555701 1.1088235
0.83146966 -3.5555701 1.0696079
0.83146966 -3.5555701 1.0303922
0.83146966 -3.5555701 0.9911765
0.83146966 -3.5555701 0.9519608
0.83146966 -3.5555701 0.9127451
0.83146966 -3.5555701 0.87352943
0.83146966 -3.5555701 0.83431375
0.83146966 -3.5555701 0.79509807
0.83146966 -3.5555701 0.7558824
0.83146966 -3.5555701 0.7166667
0.83146966 -3.5555701 0.677451
0.83146966 -3.5555701 0.63823533
0.83146966 -3.5555701 0.59901965
0.83146966 -3.5555701 0.55980396
0.83146966 -3.5555701 0.5205882
0.83146966 -3.5555701 0.48137254
0.83146966 -3.5555701 0.44215685
0.83146966 -3.5555701 0.40294117
0.83146966 -3.5555701 0.36372548
0.83146966 -3.5555701 0.3245098
0.83146966 -3.5555701 0.28529412
0.83146966 -3.5555701 0.24607843
0.83146966 -3.5555701 0.20686275
0.83146966 -3.5555701 0.16764706
0.83146966 -3.5555701 0.12843138
0.83146966 -3.5555701 0.089215636
0.70710677 -3.7071068 2.0107841
0.70710677 -3.7071068 1.9715686
0.70710677 -3.7071068 1.9323529
0.70710677 -3.7071068 1.8931372
0.70710677 -3.7071068 1.8539215
0.70710677 -3.7071068 1.8147058
0.70710677 -3.7071068 1.7754902
0.70710677 -3.7071068 1.7362745
0.70710677 -3.7071068 1.6970588
0.70710677 -3.7071068 1.6578431
0.70710677 -3.7071068 1.6186274
0.70710677 -3.7071068 1.5794117
0.70710677 -3.7071068 1.5401961
0.70710677 -3.7071068 1.5009804
0.70710677 -3.7071068 1.4617647
0.70710677 -3.7071068 1.422549
0.70710677 -3.7071068 1.3833333
0.70710677 -3.7071068 1.3441176
0.70710677 -3.7071068 1.304902
0.70710677 -3.7071068 1.2656863
0.70710677 -3.7071068 1.2264706
0.70710677 -3.7071068 1.1872549
0.70710677 -3.7071068 1.1480392
0.70710677 -3.7071068 1.1088235
0.70710677 -3.7071068 1.0696079
0.70710677 -3.7071068 1.0303922
0.70710677 -3.7071068 0.9911765
0.70710677 -3.7071068 0.9519608
0.70710677 -3.7071068 0.9127451
0.70710677 -3.7071068 0.87352943
0.70710677 -3.7071068 0.83431375
0.70710677 -3.7071068 0.79509807
0.70710677 -3.7071068 0.7558824
0.70710677 -3.7071068 0.7166667
0.70710677 -3.7071068 0.677451
0.70710677 -3.7071068 0.63823533
0.70710677 -3.7071068 0.59901965
0.70710677 -3.7071068 0.55980396
0.70710677 -3.7071068 0.5205882
0.70710677 -3.7071068 0.48137254
0.70710677 -3.7071068 0.44215685
0.70710677 -3.7071068 0.40294117
0.70710677 -3.7071068 0.36372548
0.70710677 -3.7071068 0.3245098
0.70710677 -3.7071068 0.28529412
0.70710677 -3.7071068 0.24607843
0.70710677 -3.7071068 0.20686275
0.70710677 -3.7071068 0.16764706
0.70710677 -3.7071068 0.12843138
0.70710677 -3.7071068 0.089215636
0.5555702 -3.8314695 2.0107841
0.5555702 -3.8314695 1.9715686
0.5555702 -3.8314695 1.9323529
0.5555702 -3.8314695 1.8931372
0.5555702 -3.8314695 1.8539215
0.5555702 -3.8314695 1.8147058
0.5555702 -3.8314695 1.7754902
0.5555702 -3.8314695 1.7362745
0.5555702 -3.8314695 1.6970588
0.5555702 -3.8314695 1.6578431
0.5555702 -3.8314695 1.6186274
0.5555702 -3.8314695 1.5794117
0.5555702 -3.8314695 1.5401961
0.5555702 -3.8314695 1.5009804
0.5555702 -3.8314695 1.4617647
0.5555702 -3.8314695 1.422549
0.5555702 -3.8314695 1.3833333
0.5555702 -3.8314695 1.3441176
0.5555702 -3.8314695 1.304902
0.5555702 -3.8314695 1.2656863
0.5555702 -3.8314695 1.2264706
0.5555702 -3.8314695 1.1872549
0.5555702 -3.8314695 1.1480392
0.5555702 -3.8314695 1.1088235
0.5555702 -3.8314695 1.0696079
0.5555702 -3.8314695 1.0303922
0.5555702 -3.8314695 0.9911765
0.5555702 -3.8314695 0.9519608
0.5555702 -3.8314695 0.9127451
0.5555702 -3.8314695 0.87352943
0.5555702 -3.8314695 0.83431375
0.5555702 -3.8314695 0.79509807
0.5555702 -3.8314695 0.7558824
0.5555702 -3.8314695 0.7166667
0.5555702 -3.8314695 0.677451
0.5555702 -3.8314695 0.63823533
0.5555702 -3.8314695 0.59901965
0.5555702 -3.8314695 0.55980396
0.5555702 -3.8314695 0.5205882
0.5555702 -3.8314695 0.48137254
0.5555702 -3.8314695 0.44215685
0.5555702 -3.8314695 0.40294117
0.5555702 -3.8314695 0.36372548
0.5555702 -3.8314695 0.3245098
0.5555702 -3.8314695 0.28529412
0.5555702 -3.8314695 0.24607843
0.5555702 -3.8314695 0.20686275
0.5555702 -3.8314695 0.16764706
0.5555702 -3.8314695 0.12843138
0.5555702 -3.8314695 0.089215636
0.3826835 -3.9238796 2.0107841
0.3826835 -3.9238796 1.9715686
0.3826835 -3.9238796 1.9323529
0.3826835 -3.9238796 1.8931372
0.3826835 -3.9238796 1.8539215
0.3826835 -3.9238796 1.8147058
0.3826835 -3.9238796 1.7754902
0.3826835 -3.9238796 1.7362745
0.3826835 -3.9238796 1.6970588
0.3826835 -3.9238796 1.6578431
0.3826835 -3.9238796 1.6186274
0.3826835 -3.9238796 1.5794117
0.3826835 -3.9238796 1.5401961
0.3826835 -3.9238796 1.5009804
0.3826835 -3.9238796 1.4617647
0.3826835 -3.9238796 1.422549
0.3826835 -3.9238796 1.3833333
0.3826835 -3.9238796 1.3441176
0.3826835 -3.9238796 1.304902
0.3826835 -3.9238796 1.2656863
0.3826835 -3.9238796 1.2264706
0.3826835 -3.9238796 1.1872549
0.3826835 -3.9238796 1.1480392
0.3826835 -3.9238796 1.1088235
0.3826835 -3.9238796 1.0696079
0.3826835 -3.9238796 1.0303922
0.3826835 -3.9238796 0.9911765
0.3826835 -3.9238796 0.9519608
0.3826835 -3.9238796 0.9127451
0.3826835 -3.9238796 0.87352943
0.3826835 -3.9238796 0.83431375
0.3826835 -3.9238796 0.79509807
0.3826835 -3.9238796 0.7558824
0.3826835 -3.9238796 0.7166667
0.3826835 -3.9238796 0.677451
0.3826835 -3.9238796 0.63823533
0.3826835 -3.9238796 0.59901965
0.3826835 -3.9238796 0.55980396
0.3826835 -3.9238796 0.5205882
0.3826835 -3.9238796 0.48137254
0.3826835 -3.9238796 0.44215685
0.3826835 -3.9238796 0.40294117
0.3826835 -3.9238796 0.36372548
0.3826835 -3.9238796 0.3245098
0.3826835 -3.9238796 0.28529412
0.3826835 -3.9238796 0.24607843
0.3826835 -3.9238796 0.20686275
0.3826835 -3.9238796 0.16764706
0.3826835 -3.9238796 0.12843138
0.3826835 -3.9238796 0.089215636
0.19509031 -3.9807854 2.0107841
0.19509031 -3.9807854 1.9715686
0.19509031 -3.9807854 1.9323529
0.19509031 -3.9807854 1.8931372
0.19509031 -3.9807854 1.8539215
0.19509031 -3.9807854 1.8147058
0.19509031 -3.9807854 1.7754902
0.19509031 -3.9807854 1.7362745
0.19509031 -3.9807854 1.6970588
0.19509031 -3.9807854 1.6578431
0.19509031 -3.9807854 1.6186274
0.19509031 -3.9807854 1.5794117
0.19509031 -3.9807854 1.5401961
0.19509031 -3.9807854 1.5009804
0.19509031 -3.9807854 1.4617647
0.19509031 -3.9807854 1.422549
0.19509031 -3.9807854 1.3833333
0.19509031 -3.9807854 1.3441176
0.19509031 -3.9807854 1.304902
0.19509031 -3.9807854 1.2656863
0.19509031 -3.9807854 1.2264706
0.19509031 -3.9807854 1.1872549
0.19509031 -3.9807854 1.1480392
0.19509031 -3.9807854 1.1088235
0.19509031 -3.9807854 1.0696079
0.19509031 -3.9807854 1.0303922
0.19509031 -3.9807854 0.9911765
0.19509031 -3.9807854 0.9519608
0.19509031 -3.9807854 0.9127451
0.19509031 -3.9807854 0.87352943
0.19509031 -3.9807854 0.83431375
0.19509031 -3.9807854 0.79509807
0.19509031 -3.9807854 0.7558824
0.19509031 -3.9807854 0.7166667
0.19509031 -3.9807854 0.677451
0.19509031 -3.9807854 0.63823533
0.19509031 -3.9807854 0.59901965
0.19509031 -3.9807854 0.55980396
0.19509031 -3.9807854 0.5205882
0.19509031 -3.9807854 0.48137254
0.19509031 -3.9807854 0.44215685
0.19509031 -3.9807854 0.40294117
0.19509031 -3.9807854 0.36372548
0.19509031 -3.9807854 0.3245098
0.19509031 -3.9807854 0.28529412
0.19509031 -3.9807854 0.24607843
0.19509031 -3.9807854 0.20686275
0.19509031 -3.9807854 0.16764706
0.19509031 -3.9807854 0.12843138
0.19509031 -3.9807854 0.089215636
-8.742278E-08 -4 2.0107841
-8.742278E-08 -4 1.9715686
-8.742278E-08 -4 1.9323529
-8.742278E-08 -4 1.8931372
-8.742278E-08 -4 1.8539215
-8.742278E-08 -4 1.8147058
-8.742278E-08 -4 1.7754902
-8.742278E-08 -4 1.7362745
-8.742278E-08 -4 1.6970588
-8.742278E-08 -4 1.6578431
-8.742278E-08 -4 1.6186274
-8.742278E-08 -4 1.5794117
-8.742278E-08 -4 1.5401961
-8.742278E-08 -4 1.5009804
-8.742278E-08 -4 1.4617647
-8.742278E-08 -4 1.422549
-8.742278E-08 -4 1.3833333
-8.742278E-08 -4 1.3441176
-8.742278E-08 -4 1.304902
-8.742278E-08 -4 1.2656863
-8.742278E-08 -4 1.2264706
-8.742278E-08 -4 1.1872549
-8.742278E-08 -4 1.1480392
-8.742278E-08 -4 1.1088235
-8.742278E-08 -4 1.0696079
-8.742278E-08 -4 1.0303922
-8.742278E-08 -4 0.9911765
-8.742278E-08 -4 0.9519608
-8.742278E-08 -4 0.9127451
-8.742278E-08 -4 0.87352943
-8.742278E-08 -4 0.83431375
-8.742278E-08 -4 0.79509807
-8.742278E-08 -4 0.7558824
-8.742278E-08 -4 0.7166667
-8.742278E-08 -4 0.677451
-8.742278E-08 -4 0.63823533
-8.742278E-08 -4 0.59901965
-8.742278E-08 -4 0.55980396
-8.742278E-08 -4 0.5205882
-8.742278E-08 -4 0.48137254
-8.742278E-08 -4 0.44215685
-8.742278E-08 -4 0.40294117
-8.742278E-08 -4 0.36372548
-8.742278E-08 -4 0.3245098
-8.742278E-08 -4 0.28529412
-8.742278E-08 -4 0.24607843
-8.742278E-08 -4 0.20686275
-8.742278E-08 -4 0.16764706
-8.742278E-08 -4 0.12843138
-8.742278E-08 -4 0.089215636
-0.19509025 -3.9807854 2.0107841
-0.19509025 -3.9807854 1.9715686
-0.19509025 -3.9807854 1.9323529
-0.19509025 -3.9807854 1.8931372
-0.19509025 -3.9807854 1.8539215
-0.19509025 -3.9807854 1.8147058
-0.19509025 -3.9807854 1.7754902
-0.19509025 -3.9807854 1.7362745
-0.19509025 -3.9807854 1.6970588
-0.19509025 -3.9807854 1.6578431
-0.19509025 -3.9807854 1.6186274
-0.19509025 -3.9807854 1.5794117
-0.19509025 -3.9807854 1.5401961
-0.19509025 -3.9807854 1.5009804
-0.19509025 -3.9807854 1.4617647
-0.19509025 -3.9807854 1.422549
-0.19509025 -3.9807854 1.3833333
-0.19509025 -3.9807854 1.3441176
-0.19509025 -3.9807854 1.304902
-0.19509025 -3.9807854 1.2656863
-0.19509025 -3.9807854 1.2264706
-0.19509025 -3.9807854 1.1872549
-0.19509025 -3.9807854 1.1480392
-0.19509025 -3.9807854 1.1088235
-0.19509025 -3.9807854 1.0696079
-0.19509025 -3.9807854 1.0303922
-0.19509025 -3.9807854 0.9911765
-0.19509025 -3.9807854 0.9519608
-0.19509025 -3.9807854 0.9127451
-0.19509025 -3.9807854 0.87352943
-0.19509025 -3.9807854 0.83431375
-0.19509025 -3.9807854 0.79509807
-0.19509025 -3.9807854 0.7558824
-0.19509025 -3.9807854 0.7166667
-0.19509025 -3.9807854 0.677451
-0.19509025 -3.9807854 0.63823533
-0.19509025 -3.9807854 0.59901965
-0.19509025 -3.9807854 0.55980396
-0.19509025 -3.9807854 0.5205882
-0.19509025 -3.9807854 0.48137254
-0.19509025 -3.9807854 0.44215685
-0.19509025 -3.9807854 0.40294117
-0.19509025 -3.9807854 0.36372548
-0.19509025 -3.9807854 0.3245098
-0.19509025 -3.9807854 0.28529412
-0.19509025 -3.9807854 0.24607843
-0.19509025 -3.9807854 0.20686275
-0.19509025 -3.9807854 0.16764706
-0.19509025 -3.9807854 0.12843138
-0.19509025 -3.9807854 0.089215636
-0.38268343 -3.9238796 2.0107841
-0.38268343 -3.9238796 1.9715686
-0.38268343 -3.9238796 1.9323529
-0.38268343 -3.9238796 1.8931372
-0.38268343 -3.9238796 1.8539215
-0.38268343 -3.9238796 1.8147058
-0.38268343 -3.9238796 1.7754902
-0.38268343 -3.9238796 1.7362745
-0.38268343 -3.9238796 1.6970588
-0.38268343 -3.9238796 1.6578431
-0.38268343 -3.9238796 1.6186274
-0.38268343 -3.9238796 1.5794117
-0.38268343 -3.9238796 1.5401961
-0.38268343 -3.9238796 1.5009804
-0.38268343 -3.9238796 1.4617647
-0.38268343 -3.9238796 1.422549
-0.38268343 -3.9238796 1.3833333
-0.38268343 -3.9238796 1.3441176
-0.38268343 -3.9238796 1.304902
-0.38268343 -3.9238796 1.2656863
-0.38268343 -3.9238796 1.2264706
-0.38268343 -3.9238796 1.1872549
-0.38268343 -3.9238796 1.1480392
-0.38268343 -3.9238796 1.1088235
-0.38268343 -3.9238796 1.0696079
-0.38268343 -3.9238796 1.0303922
-0.38268343 -3.9238796 0.9911765
-0.38268343 -3.9238796 0.9519608
-0.38268343 -3.9238796 0.9127451
-0.38268343 -3.9238796 0.87352943
-0.38268343 -3.9238796 0.83431375
-0.38268343 -3.9238796 0.79509807
-0.38268343 -3.9238796 0.7558824
-0.38268343 -3.9238796 0.7166667
-0.38268343 -3.9238796 0.677451
-0.38268343 -3.9238796 0.63823533
-0.38268343 -3.9238796 0.59901965
-0.38268343 -3.9238796 0.55980396
-0.38268343 -3.9238796 0.5205882
-0.38268343 -3.9238796 0.48137254
-0.38268343 -3.9238796 0.44215685
-0.38268343 -3.9238796 0.40294117
-0.38268343 -3.9238796 0.36372548
-0.38268343 -3.9238796 0.3245098
-0.38268343 -3.9238796 0.28529412
-0.38268343 -3.9238796 0.24607843
-0.38268343 -3.9238796 0.20686275
-0.38268343 -3.9238796 0.16764706
-0.38268343 -3.9238796 0.12843138
-0.38268343 -3.9238796 0.089215636
-0.5555703 -3.8314695 2.0107841
-0.5555703 -3.8314695 1.9715686
-0.5555703 -3.8314695 1.9323529
-0.5555703 -3.8314695 1.8931372
-0.5555703 -3.8314695 1.8539215
-0.5555703 -3.8314695 1.8147058
-0.5555703 -3.8314695 1.7754902
-0.5555703 -3.8314695 1.7362745
-0.5555703 -3.8314695 1.6970588
-0.5555703 -3.8314695 1.6578431
-0.5555703 -3.8314695 1.6186274
-0.5555703 -3.8314695 1.5794117
-0.5555703 -3.8314695 1.5401961
-0.5555703 -3.8314695 1.5009804
-0.5555703 -3.8314695 1.4617647
-0.5555703 -3.8314695 1.422549
-0.5555703 -3.8314695 1.3833333
-0.5555703 -3.8314695 1.3441176
-0.5555703 -3.8314695 1.304902
-0.5555703 -3.8314695 1.2656863
-0.5555703 -3.8314695 1.2264706
-0.5555703 -3.8314695 1.1872549
-0.5555703 -3.8314695 1.1480392
-0.5555703 -3.8314695 1.1088235
-0.5555703 -3.8314695 1.0696079
-0.5555703 -3.8314695 1.0303922
-0.5555703 -3.8314695 0.9911765
-0.5555703 -3.8314695 0.9519608
-0.5555703 -3.8314695 0.9127451
-0.5555703 -3.8314695 0.87352943
-0.5555703 -3.8314695 0.83431375
-0.5555703 -3.8314695 0.79509807
-0.5555703 -3.8314695 0.7558824
-0.5555703 -3.8314695 0.7166667
-0.5555703 -3.8314695 0.677451
-0.5555703 -3.8314695 0.63823533
-0.5555703 -3.8314695 0.59901965
-0.5555703 -3.8314695 0.55980396
-0.5555703 -3.8314695 0.5205882
-0.5555703 -3.8314695 0.48137254
-0.5555703 -3.8314695 0.44215685
-0.5555703 -3.8314695 0.40294117
-0.5555703 -3.8314695 0.36372548
-0.5555703 -3.8314695 0.3245098
-0.5555703 -3.8314695 0.28529412
-0.5555703 -3.8314695 0.24607843
-0.5555703 -3.8314695 0.20686275
-0.5555703 -3.8314695 0.16764706
-0.5555703 -3.8314695 0.12843138
-0.5555703 -3.8314695 0.089215636
-0.7071067 -3.7071068 2.0107841
-0.7071067 -3.7071068 1.9715686
-0.7071067 -3.7071068 1.9323529
-0.7071067 -3.7071068 1.8931372
-0.7071067 -3.7071068 1.8539215
-0.7071067 -3.7071068 1.8147058
-0.7071067 -3.7071068 1.7754902
-0.7071067 -3.7071068 1.7362745
-0.7071067 -3.7071068 1.6970588
-0.7071067 -3.7071068 1.6578431
-0.7071067 -3.7071068 1.6186274
-0.7071067 -3.7071068 1.5794117
-0.7071067 -3.7071068 1.5401961
-0.7071067 -3.7071068 1.5009804
-0.7071067 -3.7071068 1.4617647
-0.7071067 -3.7071068 1.422549
-0.7071067 -3.7071068 1.3833333
-0.7071067 -3.7071068 1.3441176
-0.7071067 -3.7071068 1.304902
-0.7071067 -3.7071068 1.2656863
-0.7071067 -3.7071068 1.2264706
-0.7071067 -3.7071068 1.1872549
-0.7071067 -3.7071068 1.1480392
-0.7071067 -3.7071068 1.1088235
-0.7071067 -3.7071068 1.0696079
-0.7071067 -3.7071068 1.0303922
-0.7071067 -3.7071068 0.9911765
-0.7071067 -3.7071068 0.9519608
-0.7071067 -3.7071068 0.9127451
-0.7071067 -3.7071068 0.87352943
-0.7071067 -3.7071068 0.83431375
-0.7071067 -3.7071068 0.79509807
-0.7071067 -3.7071068 0.7558824
-0.7071067 -3.7071068 0.7166667
-0.7071067 -3.7071068 0.677451
-0.7071067 -3.7071068 0.63823533
-0.7071067 -3.7071068 0.59901965
-0.7071067 -3.7071068 0.55980396
-0.7071067 -3.7071068 0.5205882
-0.7071067 -3.7071068 0.48137254
-0.7071067 -3.7071068 0.44215685
-0.7071067 -3.7071068 0.40294117
-0.7071067 -3.7071068 0.36372548
-0.7071067 -3.7071068 0.3245098
-0.7071067 -3.7071068 0.28529412
-0.7071067 -3.7071068 0.24607843
-0.7071067 -3.7071068 0.20686275
-0.7071067 -3.7071068 0.16764706
-0.7071067 -3.7071068 0.12843138
-0.7071067 -3.7071068 0.089215636
-0.8314695 -3.5555704 2.0107841
-0.8314695 -3.5555704 1.9715686
-0.8314695 -3.5555704 1.9323529
-0.8314695 -3.5555704 1.8931372
-0.8314695 -3.5555704 1.8539215
-0.8314695 -3.5555704 1.8147058
-0.8314695 -3.5555704 1.7754902
-0.8314695 -3.5555704 1.7362745
-0.8314695 -3.5555704 1.6970588
-0.8314695 -3.5555704 1.6578431
-0.8314695 -3.5555704 1.6186274
-0.8314695 -3.5555704 1.5794117
-0.8314695 -3.5555704 1.5401961
-0.8314695 -3.5555704 1.5009804
-0.8314695 -3.5555704 1.4617647
-0.8314695 -3.5555704 1.422549
-0.8314695 -3.5555704 1.3833333
-0.8314695 -3.5555704 1.3441176
-0.8314695 -3.5555704 1.304902
-0.8314695 -3.5555704 1.2656863
-0.8314695 -3.5555704 1.2264706
-0.8314695 -3.5555704 1.1872549
-0.8314695 -3.5555704 1.1480392
-0.8314695 -3.5555704 1.1088235
-0.8314695 -3.5555704 1.0696079
-0.8314695 -3.5555704 1.0303922
-0.8314695 -3.5555704 0.9911765
-0.8314695 -3.5555704 0.9519608
-0.8314695 -3.5555704 0.9127451
-0.8314695 -3.5555704 0.87352943
-0.8314695 -3.5555704 0.83431375
-0.8314695 -3.5555704 0.79509807
-0.8314695 -3.5555704 0.7558824
-0.8314695 -3.5555704 0.7166667
-0.8314695 -3.5555704 0.677451
-0.8314695 -3.5555704 0.63823533
-0.8314695 -3.5555704 0.59901965
-0.8314695 -3.5555704 0.55980396
-0.8314695 -3.5555704 0.5205882
-0.8314695 -3.5555704 0.48137254
-0.8314695 -3.5555704 0.44215685
-0.8314695 -3.5555704 0.40294117
-0.8314695 -3.5555704 0.36372548
-0.8314695 -3.5555704 0.3245098
-0.8314695 -3.5555704 0.28529412
-0.8314695 -3.5555704 0.24607843
-0.8314695 -3.5555704 0.20686275
-0.8314695 -3.5555704 0.16764706
-0.8314695 -3.5555704 0.12843138
-0.8314695 -3.5555704 0.089215636
-0.9238795 -3.3826835 2.0107841
-0.9238795 -3.3826835 1.9715686
-0.9238795 -3.3826835 1.9323529
-0.9238795 -3.3826835 1.8931372
-0.9238795 -3.3826835 1.8539215
-0.9238795 -3.3826835 1.8147058
-0.9238795 -3.3826835 1.7754902
-0.9238795 -3.3826835 1.7362745
-0.9238795 -3.3826835 1.6970588
-0.9238795 -3.3826835 1.6578431
-0.9238795 -3.3826835 1.6186274
-0.9238795 -3.3826835 1.5794117
-0.9238795 -3.3826835 1.5401961
-0.9238795 -3.3826835 1.5009804
-0.9238795 -3.3826835 1.4617647
-0.9238795 -3.3826835 1.422549
-0.9238795 -3.3826835 1.3833333
-0.9238795 -3.3826835 1.3441176
-0.9238795 -3.3826835 1.304902
-0.9238795 -3.3826835 1.2656863
-0.9238795 -3.3826835 1.2264706
-0.9238795 -3.3826835 1.1872549
-0.9238795 -3.3826835 1.1480392
-0.9238795 -3.3826835 1.1088235
-0.9238795 -3.3826835 1.0696079
-0.9238795 -3.3826835 1.0303922
-0.9238795 -3.3826835 0.9911765
-0.9238795 -3.3826835 0.9519608
-0.9238795 -3.3826835 0.9127451
-0.9238795 -3.3826835 0.87352943
-0.9238795 -3.3826835 0.83431375
-0.9238795 -3.3826835 0.79509807
-0.9238795 -3.3826835 0.7558824
-0.9238795 -3.3826835 0.7166667
-0.9238795 -3.3826835 0.677451
-0.9238795 -3.3826835 0.63823533
-0.9238795 -3.3826835 0.59901965
-0.9238795 -3.3826835 0.55980396
-0.9238795 -3.3826835 0.5205882
-0.9238795 -3.3826835 0.48137254
-0.9238795 -3.3826835 0.44215685
-0.9238795 -3.3826835 0.40294117
-0.9238795 -3.3826835 0.36372548
-0.9238795 -3.3826835 0.3245098
-0.9238795 -3.3826835 0.28529412
-0.9238795 -3.3826835 0.24607843
-0.9238795 -3.3826835 0.20686275
-0.9238795 -3.3826835 0.16764706
-0.9238795 -3.3826835 0.12843138
-0.9238795 -3.3826835 0.089215636
-0.98078525 -3.1950903 2.0107841
-0.98078525 -3.1950903 1.9715686
-0.98078525 -3.1950903 1.9323529
-0.98078525 -3.1950903 1.8931372
-0.98078525 -3.1950903 1.8539215
-0.98078525 -3.1950903 1.8147058
-0.98078525 -3.1950903 1.7754902
-0.98078525 -3.1950903 1.7362745
-0.98078525 -3.1950903 1.6970588
-0.98078525 -3.1950903 1.6578431
-0.98078525 -3.1950903 1.6186274
-0.98078525 -3.1950903 1.5794117
-0.98078525 -3.1950903 1.5401961
-0.98078525 -3.1950903 1.5009804
-0.98078525 -3.1950903 1.4617647
-0.98078525 -3.1950903 1.422549
-0.98078525 -3.1950903 1.3833333
-0.98078525 -3.1950903 1.3441176
-0.98078525 -3.1950903 1.304902
-0.98078525 -3.1950903 1.2656863
-0.98078525 -3.1950903 1.2264706
-0.98078525 -3.1950903 1.1872549
-0.98078525 -3.1950903 1.1480392
-0.98078525 -3.1950903 1.1088235
-0.98078525 -3.1950903 1.0696079
-0.98078525 -3.1950903 1.0303922
-0.98078525 -3.1950903 0.9911765
-0.98078525 -3.1950903 0.9519608
-0.98078525 -3.1950903 0.9127451
-0.98078525 -3.1950903 0.87352943
-0.98078525 -3.1950903 0.83431375
-0.98078525 -3.1950903 0.79509807
-0.98078525 -3.1950903 0.7558824
-0.98078525 -3.1950903 0.7166667
-0.98078525 -3.1950903 0.677451
-0.98078525 -3.1950903 0.63823533
-0.98078525 -3.1950903 0.59901965
-0.98078525 -3.1950903 0.55980396
-0.98078525 -3.1950903 0.5205882
-0.98078525 -3.1950903 0.48137254
-0.98078525 -3.1950903 0.44215685
-0.98078525 -3.1950903 0.40294117
-0.98078525 -3.1950903 0.36372548
-0.98078525 -3.1950903 0.3245098
-0.98078525 -3.1950903 0.28529412
-0.98078525 -3.1950903 0.24607843
-0.98078525 -3.1950903 0.20686275
-0.98078525 -3.1950903 0.16764706
-0.98078525 -3.1950903 0.12843138
-0.98078525 -3.1950903 0.089215636
-1 -3 2.0107841
-1 -3 1.9715686
-1 -3 1.9323529
-1 -3 1.8931372
-1 -3 1.8539215
-1 -3 1.8147058
-1 -3 1.7754902
-1 -3 1.7362745
-1 -3 1.6970588
-1 -3 1.6578431
-1 -3 1.6186274
-1 -3 1.5794117
-1 -3 1.5401961
-1 -3 1.5009804
-1 -3 1.4617647
-1 -3 1.422549
-1 -3 1.3833333
-1 -3 1.3441176
-1 -3 1.304902
-1 -3 1.2656863
-1 -3 1.2264706
-1 -3 1.1872549
-1 -3 1.1480392
-1 -3 1.1088235
-1 -3 1.0696079
-1 -3 1.0303922
-1 -3 0.9911765
-1 -3 0.9519608
-1 -3 0.9127451
-1 -3 0.87352943
-1 -3 0.83431375
-1 -3 0.79509807
-1 -3 0.7558824
-1 -3 0.7166667
-1 -3 0.677451
-1 -3 0.63823533
-1 -3 0.59901965
-1 -3 0.55980396
-1 -3 0.5205882
-1 -3 0.48137254
-1 -3 0.44215685
-1 -3 0.40294117
-1 -3 0.36372548
-1 -3 0.3245098
-1 -3 0.28529412
-1 -3 0.24607843
-1 -3 0.20686275
-1 -3 0.16764706
-1 -3 0.12843138
-1 -3 0.089215636
-0.98078525 -2.8049097 2.0107841
-0.98078525 -2.8049097 1.9715686
-0.98078525 -2.8049097 1.9323529
-0.98078525 -2.8049097 1.8931372
-0.98078525 -2.8049097 1.8539215
-0.98078525 -2.8049097 1.8147058
-0.98078525 -2.8049097 1.7754902
-0.98078525 -2.8049097 1.7362745
-0.98078525 -2.8049097 1.6970588
-0.98078525 -2.8049097 1.6578431
-0.98078525 -2.8049097 1.6186274
-0.98078525 -2.8049097 1.5794117
-0.98078525 -2.8049097 1.5401961
-0.98078525 -2.8049097 1.5009804
-0.98078525 -2.8049097 1.4617647
-0.98078525 -2.8049097 1.422549
-0.98078525 -2.8049097 1.3833333
-0.98078525 -2.8049097 1.3441176
-0.98078525 -2.8049097 1.304902
-0.98078525 -2.8049097 1.2656863
-0.98078525 -2.8049097 1.2264706
-0.98078525 -2.8049097 1.1872549
-0.98078525 -2.8049097 1.1480392
-0.98078525 -2.8049097 1.1088235
-0.98078525 -2.8049097 1.0696079
-0.98078525 -2.8049097 1.0303922
-0.98078525 -2.8049097 0.9911765
-0.98078525 -2.8049097 0.9519608
-0.98078525 -2.8049097 0.9127451
-0.98078525 -2.8049097 0.87352943
-0.98078525 -2.8049097 0.83431375
-0.98078525 -2.8049097 0.79509807
-0.98078525 -2.8049097 0.7558824
-0.98078525 -2.8049097 0.7166667
-0.98078525 -2.8049097 0.677451
-0.98078525 -2.8049097 0.63823533
-0.98078525 -2.8049097 0.59901965
-0.98078525 -2.8049097 0.55980396
-0.98078525 -2.8049097 0.5205882
-0.98078525 -2.8049097 0.48137254
-0.98078525 -2.8049097 0.44215685
-0.98078525 -2.8049097 0.40294117
-0.98078525 -2.8049097 0.36372548
-0.98078525 -2.8049097 0.3245098
-0.98078525 -2.8049097 0.28529412
-0.98078525 -2.8049097 0.24607843
-0.98078525 -2.8049097 0.20686275
-0.98078525 -2.8049097 0.16764706
-0.98078525 -2.8049097 0.12843138
-0.98078525 -2.8049097 0.089215636
-0.92387944 -2.6173165 2.0107841
-0.92387944 -2.6173165 1.9715686
-0.92387944 -2.6173165 1.9323529
-0.92387944 -2.6173165 1.8931372
-0.92387944 -2.6173165 1.8539215
-0.92387944 -2.6173165 1.8147058
-0.92387944 -2.6173165 1.7754902
-0.92387944 -2.6173165 1.7362745
-0.92387944 -2.6173165 1.6970588
-0.92387944 -2.6173165 1.6578431
-0.92387944 -2.6173165 1.6186274
-0.92387944 -2.6173165 1.5794117
-0.92387944 -2.6173165 1.5401961
-0.92387944 -2.6173165 1.5009804
-0.92387944 -2.6173165 1.4617647
-0.92387944 -2.6173165 1.422549
-0.92387944 -2.6173165 1.3833333
-0.92387944 -2.6173165 1.3441176
-0.92387944 -2.6173165 1.304902
-0.92387944 -2.6173165 1.2656863
-0.92387944 -2.6173165 1.2264706
-0.92387944 -2.6173165 1.1872549
-0.92387944 -2.6173165 1.1480392
-0.92387944 -2.6173165 1.1088235
-0.92387944 -2.6173165 1.0696079
-0.92387944 -2.6173165 1.0303922
-0.92387944 -2.6173165 0.9911765
-0.92387944 -2.6173165 0.9519608
-0.92387944 -2.6173165 0.9127451
-0.92387944 -2.6173165 0.87352943
-0.92387944 -2.6173165 0.83431375
-0.92387944 -2.6173165 0.79509807
-0.92387944 -2.6173165 0.7558824
-0.92387944 -2.6173165 0.7166667
-0.92387944 -2.6173165 0.677451
-0.92387944 -2.6173165 0.63823533
-0.92387944 -2.6173165 0.59901965
-0.92387944 -2.6173165 0.55980396
-0.92387944 -2.6173165 0.5205882
-0.92387944 -2.6173165 0.48137254
-0.92387944 -2.6173165 0.44215685
-0.92387944 -2.6173165 0.40294117
-0.92387944 -2.6173165 0.36372548
-0.92387944 -2.6173165 0.3245098
-0.92387944 -2.6173165 0.28529412
-0.92387944 -2.6173165 0.24607843
-0.92387944 -2.6173165 0.20686275
-0.92387944 -2.6173165 0.16764706
-0.92387944 -2.6173165 0.12843138
-0.92387944 -2.6173165 0.089215636
-0.8314697 -2.4444299 2.0107841
-0.8314697 -2.4444299 1.9715686
-0.8314697 -2.4444299 1.9323529
-0.8314697 -2.4444299 1.8931372
-0.8314697 -2.4444299 1.8539215
-0.8314697 -2.4444299 1.8147058
-0.8314697 -2.4444299 1.7754902
-0.8314697 -2.4444299 1.7362745
-0.8314697 -2.4444299 1.6970588
-0.8314697 -2.4444299 1.6578431
-0.8314697 -2.4444299 1.6186274
-0.8314697 -2.4444299 1.5794117
-0.8314697 -2.4444299 1.5401961
-0.8314697 -2.4444299 1.5009804
-0.8314697 -2.4444299 1.4617647
-0.8314697 -2.4444299 1.422549
-0.8314697 -2.4444299 1.3833333
-0.8314697 -2.4444299 1.3441176
-0.8314697 -2.4444299 1.304902
-0.8314697 -2.4444299 1.2656863
-0.8314697 -2.4444299 1.2264706
-0.8314697 -2.4444299 1.1872549
-0.8314697 -2.4444299 1.1480392
-0.8314697 -2.4444299 1.1088235
-0.8314697 -2.4444299 1.0696079
-0.8314697 -2.4444299 1.0303922
-0.8314697 -2.4444299 0.9911765
-0.8314697 -2.4444299 0.9519608
-0.8314697 -2.4444299 0.9127451
-0.8314697 -2.4444299 0.87352943
-0.8314697 -2.4444299 0.83431375
-0.8314697 -2.4444299 0.79509807
-0.8314697 -2.4444299 0.7558824
-0.8314697 -2.4444299 0.7166667
-0.8314697 -2.4444299 0.677451
-0.8314697 -2.4444299 0.63823533
-0.8314697 -2.4444299 0.59901965
-0.8314697 -2.4444299 0.55980396
-0.8314697 -2.4444299 0.5205882
-0.8314697 -2.4444299 0.48137254
-0.8314697 -2.4444299 0.44215685
-0.8314697 -2.4444299 0.40294117
-0.8314697 -2.4444299 0.36372548
-0.8314697 -2.4444299 0.3245098
-0.8314697 -2.4444299 0.28529412
-0.8314697 -2.4444299 0.24607843
-0.8314697 -2.4444299 0.20686275
-0.8314697 -2.4444299 0.16764706
-0.8314697 -2.4444299 0.12843138
-0.8314697 -2.4444299 0.089215636
-0.7071069 -2.2928934 2.0107841
-0.7071069 -2.2928934 1.9715686
-0.7071069 -2.2928934 1.9323529
-0.7071069 -2.2928934 1.8931372
-0.7071069 -2.2928934 1.8539215
-0.7071069 -2.2928934 1.8147058
-0.7071069 -2.2928934 1.7754902
-0.7071069 -2.2928934 1.7362745
-0.7071069 -2.2928934 1.6970588
-0.7071069 -2.2928934 1.6578431
-0.7071069 -2.2928934 1.6186274
-0.7071069 -2.2928934 1.5794117
-0.7071069 -2.2928934 1.5401961
-0.7071069 -2.2928934 1.5009804
-0.7071069 -2.2928934 1.4617647
-0.7071069 -2.2928934 1.422549
-0.7071069 -2.2928934 1.3833333
-0.7071069 -2.2928934 1.3441176
-0.7071069 -2.2928934 1.304902
-0.7071069 -2.2928934 1.2656863
-0.7071069 -2.2928934 1.2264706
-0.7071069 -2.2928934 1.1872549
-0.7071069 -2.2928934 1.1480392
-0.7071069 -2.2928934 1.1088235
-0.7071069 -2.2928934 1.0696079
-0.7071069 -2.2928934 1.0303922
-0.7071069 -2.2928934 0.9911765
-0.7071069 -2.2928934 0.9519608
-0.7071069 -2.2928934 0.9127451
-0.7071069 -2.2928934 0.87352943
-0.7071069 -2.2928934 0.83431375
-0.7071069 -2.2928934 0.79509807
-0.7071069 -2.2928934 0.7558824
-0.7071069 -2.2928934 0.7166667
-0.7071069 -2.2928934 0.677451
-0.7071069 -2.2928934 0.63823533
-0.7071069 -2.2928934 0.59901965
-0.7071069 -2.2928934 0.55980396
-0.7071069 -2.2928934 0.5205882
-0.7071069 -2.2928934 0.48137254
-0.7071069 -2.2928934 0.44215685
-0.7071069 -2.2928934 0.40294117
-0.7071069 -2.2928934 0.36372548
-0.7071069 -2.2928934 0.3245098
-0.7071069 -2.2928934 0.28529412
-0.7071069 -2.2928934 0.24607843
-0.7071069 -2.2928934 0.20686275
-0.7071069 -2.2928934 0.16764706
-0.7071069 -2.2928934 0.12843138
-0.7071069 -2.2928934 0.089215636
-0.5555703 -2.1685305 2.0107841
-0.5555703 -2.1685305 1.9715686
-0.5555703 -2.1685305 1.9323529
-0.5555703 -2.1685305 1.8931372
-0.5555703 -2.1685305 1.8539215
-0.5555703 -2.1685305 1.8147058
-0.5555703 -2.1685305 1.7754902
-0.5555703 -2.1685305 1.7362745
-0.5555703 -2.1685305 1.6970588
-0.5555703 -2.1685305 1.6578431
-0.5555703 -2.1685305 1.6186274
-0.5555703 -2.1685305 1.5794117
-0.5555703 -2.1685305 1.5401961
-0.5555703 -2.1685305 1.5009804
-0.5555703 -2.1685305 1.4617647
-0.5555703 -2.1685305 1.422549
-0.5555703 -2.1685305 1.3833333
-0.5555703 -2.1685305 1.3441176
-0.5555703 -2.1685305 1.304902
-0.5555703 -2.1685305 1.2656863
-0.5555703 -2.1685305 1.2264706
-0.5555703 -2.1685305 1.1872549
-0.5555703 -2.1685305 1.1480392
-0.5555703 -2.1685305 1.1088235
-0.5555703 -2.1685305 1.0696079
-0.5555703 -2.1685305 1.0303922
-0.5555703 -2.1685305 0.9911765
-0.5555703 -2.1685305 0.9519608
-0.5555703 -2.1685305 0.9127451
-0.5555703 -2.1685305 0.87352943
-0.5555703 -2.1685305 0.83431375
-0.5555703 -2.1685305 0.79509807
-0.5555703 -2.1685305 0.7558824
-0.5555703 -2.1685305 0.7166667
-0.5555703 -2.1685305 0.677451
-0.5555703 -2.1685305 0.63823533
-0.5555703 -2.1685305 0.59901965
-0.5555703 -2.1685305 0.55980396
-0.5555703 -2.1685305 0.5205882
-0.5555703 -2.1685305 0.48137254
-0.5555703 -2.1685305 0.44215685
-0.5555703 -2.1685305 0.40294117
-0.5555703 -2.1685305 0.36372548
-0.5555703 -2.1685305 0.3245098
-0.5555703 -2.1685305 0.28529412
-0.5555703 -2.1685305 0.24607843
-0.5555703 -2.1685305 0.20686275
-0.5555703 -2.1685305 0.16764706
-0.5555703 -2.1685305 0.12843138
-0.5555703 -2.1685305 0.089215636
-0.38268343 -2.0761204 2.0107841
-0.38268343 -2.0761204 1.9715686
-0.38268343 -2.0761204 1.9323529
-0.38268343 -2.0761204 1.8931372
-0.38268343 -2.0761204 1.8539215
-0.38268343 -2.0761204 1.8147058
-0.38268343 -2.0761204 1.7754902
-0.38268343 -2.0761204 1.7362745
-0.38268343 -2.0761204 1.6970588
-0.38268343 -2.0761204 1.6578431
-0.38268343 -2.0761204 1.6186274
-0.38268343 -2.0761204 1.5794117
-0.38268343 -2.0761204 1.5401961
-0.38268343 -2.0761204 1.5009804
-0.38268343 -2.0761204 1.4617647
-0.38268343 -2.0761204 1.422549
-0.38268343 -2.0761204 1.3833333
-0.38268343 -2.0761204 1.3441176
-0.38268343 -2.0761204 1.304902
-0.38268343 -2.0761204 1.2656863
-0.38268343 -2.0761204 1.2264706
-0.38268343 -2.0761204 1.1872549
-0.38268343 -2.0761204 1.1480392
-0.38268343 -2.0761204 1.1088235
-0.38268343 -2.0761204 1.0696079
-0.38268343 -2.0761204 1.0303922
-0.38268343 -2.0761204 0.9911765
-0.38268343 -2.0761204 0.9519608
-0.38268343 -2.0761204 0.9127451
-0.38268343 -2.0761204 0.87352943
-0.38268343 -2.0761204 0.83431375
-0.38268343 -2.0761204 0.79509807
-0.38268343 -2.0761204 0.7558824
-0.38268343 -2.0761204 0.7166667
-0.38268343 -2.0761204 0.677451
-0.38268343 -2.0761204 0.63823533
-0.38268343 -2.0761204 0.59901965
-0.38268343 -2.0761204 0.55980396
