  4.27171e-03 -3.04455e-01 -5.82224e-01
 -1.82309e-01 -4.43996e-01  6.68101e-01
 -2.95079e-01  1.11972e-01  2.52853e-01
  2.04406e-01 -3.73820e-01  2.54312e-01
 -9.74977e-02 -2.84614e-01 -5.52350e-01
 -2.65131e-01 -1.34638e-01 -3.53696e-01
  7.02291e-02  2.92265e-01 -6.00835e-01
 -2.92013e-01 -3.98028e-02 -8.89523e-02
  1.25982e-01  4.54643e-01  5.04850e-01
  1.26912e-01  4.44644e-01  4.21080e-01
  1.60087e-01 -7.90456e-02  6.78137e-01
  1.65653e-01 -2.60260e-01 -1.64865e-01
  5.25165e-01  1.04153e-02  2.99970e-01
  3.70716e-01 -2.76887e-01  5.12808e-01
 -8.75976e-02 -2.97604e-01  1.73139e-01
  2.41256e-01 -1.88077e-01 -7.14593e-01
  8.23257e-02 -4.64135e-01  3.35251e-01
  5.19855e-01 -2.13458e-02  3.38646e-01
  3.01596e-02 -2.71679e-01  6.78004e-01
 -1.44477e-01  2.72311e-01 -6.31935e-01
  2.21898e-01 -1.97821e-01  1.50270e-01
 -1.53975e-01 -9.87925e-02 -1.00723e+00
  2.70637e-01  1.49945e-01 -3.06576e-01
  1.30710e-01  2.62939e-01 -8.46093e-01
 -9.53008e-02 -2.93731e-01  4.22011e-02
 -4.63734e-01  1.06088e-01  4.17445e-01
 -1.43172e-01  1.54382e-01 -1.00036e+00
 -1.47274e-01 -2.53858e-01 -9.56366e-01
  1.89025e-01 -2.28320e-01 -5.22330e-02
  3.39628e-01  2.49116e-01  6.76299e-01
  2.03926e-01 -2.17826e-01 -6.20341e-01
 -2.98384e-01  5.16397e-02 -2.77085e-01
  2.46817e-01  1.72056e-01  7.46551e-02
 -4.49897e-02 -2.95899e-01  2.06805e-01
 -2.21688e-01  1.91517e-01 -5.35807e-01
  2.94045e-01 -9.84101e-02 -6.44178e-01
 -3.68020e-02 -3.91997e-01  2.64537e-01
  3.02403e-01  2.63028e-02 -8.11820e-01
  3.42752e-01 -3.14692e-01  4.72609e-01
  2.44646e-02 -2.62013e-01 -1.00913e+00
  3.65666e-01  2.07653e-01  6.81294e-01
  4.62088e-01  1.23875e-01  2.75429e-01
  2.69129e-01 -1.35327e-01 -4.75648e-01
 -3.33017e-01  3.41436e-01  3.45268e-01
  5.19046e-01  1.69333e-02  4.43690e-01
 -1.81380e-01  2.43500e-01 -5.30629e-01
 -2.07973e-01 -2.32802e-01 -4.86363e-01
 -1.81752e-01  1.23158e-01 -9.92987e-01
  1.44197e-01  4.15746e-01  6.77807e-01
 -3.28780e-02  2.94659e-01 -1.77548e-01
  2.55723e-01  1.69829e-01 -6.38416e-01
  2.98645e-01  4.10116e-02 -3.66816e-01
 -1.47318e-01  2.59815e-01 -9.31794e-01
  2.89103e-01 -1.08515e-01 -6.00760e-01
 -2.02680e-01 -1.04483e-02  6.71129e-01
 -2.86401e-01 -8.78466e-02  1.82617e-01
 -2.90686e-01 -7.99653e-02 -5.52017e-01
 -6.30822e-04 -3.38833e-01  6.76658e-01
  2.91405e-01 -7.91845e-02  2.35818e-01
  4.20332e-01  1.74513e-01  2.53861e-01
 -2.70046e-01  1.09905e-01 -8.73386e-01
 -1.91709e-01 -1.59619e-01 -9.91292e-01
  2.68066e-01  1.25207e-01 -3.92717e-02
  1.60928e-01 -2.60504e-01 -6.61091e-01
  2.43111e-01  1.62375e-01 -5.36101e-01
  3.06223e-01  5.95564e-02  1.55230e-01
  2.94578e-01 -7.67552e-03  2.25076e-01
  3.20952e-01  3.58299e-01  2.71676e-01
  4.31614e-01  1.41578e-01  3.43410e-01
  3.75238e-01  6.08519e-02  2.55866e-01
 -1.97413e-01  3.81448e-01  6.74600e-01
 -3.14759e-01  3.38063e-01  3.67441e-01
  2.02482e-01  2.18166e-01 -3.62392e-01
  1.65764e-02 -3.01736e-01  1.71429e-01
 -4.29933e-01  3.14037e-02  6.75039e-01
 -6.53046e-02  2.89736e-01 -2.51849e-01
  1.08772e-01  2.70590e-01 -4.89593e-01
  2.42081e-01 -3.57016e-01  6.66592e-01
 -4.43736e-01  1.15508e-01  5.88712e-01
 -6.66521e-02 -4.50685e-01  5.14558e-01
  3.00521e-01 -3.00361e-02 -8.75539e-01
 -4.95211e-01  4.23480e-02  6.45333e-01
 -1.98487e-01  2.24386e-01 -4.55191e-01
 -2.85707e-01 -1.02990e-01 -1.98333e-01
 -2.87275e-01  5.12229e-02  1.31978e-01
  4.08395e-02 -3.11558e-01 -5.99749e-01
  3.03621e-01  7.18836e-02 -2.75238e-01
  3.42352e-01  3.18605e-01  3.48427e-01
 -2.58926e-01 -1.42029e-01  1.25076e-01
 -2.70026e-01  3.78488e-01  6.74343e-01
  1.67153e-01 -2.38112e-01 -9.92126e-01
  1.77245e-01  4.44787e-01  2.74319e-01
  1.52298e-01  2.57576e-01 -9.95864e-01
 -2.78121e-01  1.06188e-01  1.05279e-01
 -4.26676e-01  1.37602e-01  2.53922e-01
 -9.36772e-02  2.63221e-01  6.78754e-01
 -1.54153e-01 -2.54804e-01 -4.55631e-01
  2.94254e-01 -3.61957e-02 -1.00123e+00
 -4.51594e-02  4.54429e-01  6.79994e-01
 -1.93377e-01  2.00386e-01  6.75958e-01
  4.48795e-01  1.37503e-01  5.17828e-01
 -1.77035e-01  2.33292e-01 -2.70676e-02
  3.47424e-01 -3.24898e-01  5.80549e-01
 -3.08163e-01  6.28921e-03  1.30345e-01
 -2.72944e-01 -1.21835e-01  2.03353e-01
  4.51713e-01  3.41613e-02  2.63971e-01
 -2.39961e-02 -4.56931e-01  6.44460e-01
  2.41920e-01  3.64906e-01  6.75293e-01
  2.69137e-01  1.32149e-01 -8.59044e-01
  2.25572e-01 -1.90491e-01 -9.77989e-01
 -1.77816e-01 -2.47040e-01  2.30591e-01
  5.97949e-02 -2.89480e-01 -2.96536e-01
 -2.10080e-01 -2.26165e-01  1.47859e-01
  1.56752e-01  2.45444e-01 -8.34188e-01
 -3.95549e-01  1.83051e-01  2.64643e-01
  8.15701e-02 -7.48268e-02 -9.90076e-01
  4.04688e-02  3.00235e-01 -3.05798e-01
 -2.84734e-01  8.09668e-02 -2.04310e-01
 -5.06133e-01 -3.63359e-02  5.46746e-01
  3.29371e-01 -3.45477e-01  5.05521e-01
 -8.06224e-02 -1.61614e-01  6.66802e-01
  6.20884e-02  2.90092e-01 -3.64651e-01
 -2.70558e-01 -4.17499e-01  6.40443e-01
 -8.56941e-02 -2.81478e-01  1.85013e-01
 -2.79498e-01  4.30148e-01  4.96334e-01
  3.00999e-01 -3.22311e-04  1.16790e-01
  1.86601e-02  4.46678e-01  3.77545e-01
 -3.78762e-04 -3.05804e-01 -1.70004e-01
  2.29440e-01  1.75693e-01 -1.00316e+00
  2.12921e-02 -3.13190e-01 -1.49903e-01
  2.47149e-01  1.64309e-01 -2.27961e-01
  6.40009e-02  2.83819e-01 -4.82793e-01
 -2.39912e-01 -1.83430e-01  1.29677e-01
 -4.69846e-01 -1.10396e-01  4.19864e-01
 -1.25305e-02  3.03754e-01  2.20600e-01
 -2.82430e-01  1.27446e-01  1.88359e-01
 -2.66698e-01 -1.24582e-01 -9.97075e-01
  2.29452e-01  1.96750e-01 -9.82564e-01
  3.58314e-01  2.60190e-01  6.65279e-01
 -3.63219e-01 -2.72967e-01  2.76974e-01
  1.79612e-01 -4.62972e-01  4.49853e-01
 -7.24183e-02  2.82060e-01 -5.23815e-01
 -2.74051e-01 -1.30213e-01 -4.89288e-01
  1.39695e-01  2.76958e-01  6.75112e-01
  2.50421e-01  6.99305e-02  6.81182e-01
 -2.94231e-01 -7.90187e-02 -5.00350e-01
  2.01314e-01  2.33155e-01 -2.98541e-01
  9.40171e-02  7.09483e-02 -1.00295e+00
 -3.00546e-01 -3.27171e-02 -8.61187e-01
  4.06807e-02  2.80273e-01  6.68889e-01
 -4.93367e-01 -6.64421e-02  5.14778e-01
 -9.06453e-02  2.92568e-01 -2.79618e-01
 -2.94562e-01  8.60780e-02 -5.71353e-01
 -2.60035e-01 -1.35477e-01  2.47321e-01
 -2.73787e-01 -1.22715e-01  1.00268e-01
  3.41534e-01  3.13297e-01  5.25201e-01
 -3.90039e-01  1.69378e-01  6.72546e-01
 -1.94410e-01 -2.40236e-01 -7.12729e-01
 -2.19828e-01 -4.19040e-01  6.58757e-01
  3.53300e-01 -1.21433e-01  6.66824e-01
 -1.92382e-01  2.16606e-01 -7.62718e-01
 -3.18839e-01 -3.52701e-01  3.62454e-01
  8.37231e-02  3.77433e-01  6.66946e-01
 -5.26463e-01  3.67518e-03  3.03525e-01
  2.90001e-01  1.12534e-01 -3.90765e-01
 -1.86484e-01  2.27950e-01 -1.65018e-01
  2.34105e-01 -2.00114e-01  3.21267e-02
 -3.82152e-03  4.43441e-01  3.85967e-01
 -1.36024e-01 -2.88650e-01  2.54004e-01
 -3.01258e-01  6.37208e-02 -6.44874e-01
 -8.96043e-02  1.16173e-01  6.66751e-01
 -2.89069e-01 -9.55882e-02  7.25970e-02
  3.54494e-01 -2.88495e-01  5.00765e-01
  3.03346e-01 -3.31334e-02 -7.58441e-02
 -1.36649e-01  2.60501e-01 -8.82763e-01
  2.71739e-01  1.21723e-01 -7.28356e-01
 -2.29289e-01  2.99405e-01  2.55771e-01
 -1.65967e-01  2.48473e-01 -6.18931e-01
  3.81890e-01  2.28850e-01  4.41157e-01
  3.76796e-01 -1.22612e-01  6.80237e-01
 -4.58557e-03 -2.07228e-01 -9.96527e-01
  2.25450e-02 -4.31477e-01  2.61853e-01
  2.01939e-01  1.20759e-01  6.68531e-01
 -1.80868e-01 -2.34161e-01 -1.55018e-01
 -7.41550e-02  2.84371e-01 -8.55254e-02
  1.62072e-01  3.03413e-01  2.53477e-01
 -2.33266e-01 -2.04074e-01  1.88086e-01
  3.01026e-01 -4.02498e-01  6.00040e-01
  3.11583e-01 -1.42611e-01  6.74829e-01
 -2.28175e-01  4.10258e-01  2.62858e-01
 -1.57556e-01  2.50657e-01 -4.70527e-01
 -5.02364e-01 -4.59703e-02  3.85160e-01
  2.49662e-01  1.71196e-01  7.80382e-02
  1.77742e-02  2.97953e-01 -3.07116e-01
 -4.36037e-01 -1.45537e-01  4.64269e-01
  4.39408e-02  2.89984e-01 -3.25994e-01
 -4.41221e-01 -1.26630e-01  6.36788e-01
 -1.77781e-01  2.36747e-01 -8.60511e-02
 -8.88006e-02 -2.91030e-01 -4.01883e-01
  2.45801e-01 -1.85064e-01 -5.67182e-01
  2.54887e-01  3.59787e-01  6.64281e-01
  1.22941e-01  3.05838e-01  6.73276e-01
  4.34713e-01  1.47531e-01  5.83382e-01
 -3.95134e-01 -2.11471e-01  2.75813e-01
  3.68772e-01 -2.92227e-01  5.06916e-01
 -2.24480e-01 -2.05990e-01 -4.52851e-01
 -3.25869e-01 -3.43571e-01  4.69622e-01
  3.91370e-01  2.12270e-01  6.51887e-01
  3.03616e-01  3.40457e-02 -1.19735e-02
 -3.01735e-01 -3.28289e-03 -5.43617e-01
  2.26366e-01 -4.56666e-01  6.31669e-01
  1.27107e-01 -2.69698e-01 -2.45119e-01
  9.50961e-02  4.47624e-01  3.48725e-01
 -3.32831e-01  3.18675e-01  2.56008e-01
  3.41234e-01  3.06932e-01  6.19330e-01
  2.85577e-01  1.00119e-01 -7.96596e-01
 -7.76181e-02 -8.20729e-02 -1.00526e+00
 -3.32599e-01 -1.26436e-01  6.71779e-01
  2.83709e-01  1.26702e-01 -3.97309e-01
 -2.05963e-02  3.21540e-01  6.79206e-01
  5.08760e-01 -2.22089e-02  5.63999e-01
  1.50615e-02  3.03329e-01 -4.33282e-01
 -2.47983e-01  1.78528e-01 -4.85336e-01
 -1.05303e-01  1.87947e-01 -1.00961e+00
  4.30782e-02 -1.59835e-01  6.78337e-01
  2.86485e-01  8.04506e-02 -1.40026e-01
  7.89826e-02 -2.31241e-04 -1.00176e+00
  3.13368e-02  2.35276e-02 -1.00032e+00
 -1.46544e-01  4.56246e-01  3.70483e-01
 -6.16885e-02  2.50506e-01 -9.95797e-01
  1.80210e-01 -2.58874e-01  2.59815e-01
  8.77918e-02  2.89635e-01 -2.42848e-01
  6.71928e-02  4.47438e-01  5.47046e-01
  3.29269e-01  6.86470e-02  2.53013e-01
 -1.29386e-01  3.61864e-01  2.50970e-01
 -2.74083e-01 -1.35500e-01  6.49453e-02
 -6.40837e-02  2.40136e-01  6.70661e-01
  4.88606e-01  3.92818e-02  2.60297e-01
  3.10256e-01 -4.17932e-02 -1.39518e-02
 -5.02516e-01  2.13543e-02  3.35798e-01
  1.95259e-01 -2.45992e-01 -8.73328e-01
 -2.49374e-03  2.92037e-01  6.67964e-01
 -2.23261e-01 -3.17384e-01  2.57833e-01
  1.04766e-01  2.71606e-01  1.84441e-01
  2.01036e-01  2.36325e-01 -1.37164e-01
  1.35904e-01 -2.32879e-01  6.74348e-01
 -2.65760e-01 -4.16968e-01  6.45948e-01
  5.46804e-02  3.03620e-01  2.37492e-01
  2.95133e-01  1.53221e-02 -8.26692e-01
  4.26880e-01 -1.66575e-01  3.08363e-01
 -2.70473e-01  3.17200e-01  2.50129e-01
 -9.88229e-02 -2.27730e-01 -9.94978e-01
 -2.84803e-01 -8.67883e-02  7.97821e-02
  6.28918e-02 -2.91312e-01  2.06684e-01
  5.88477e-03  2.92593e-01 -7.94594e-01
 -2.60424e-01  4.38755e-01  6.14477e-01
  2.76994e-01  9.97022e-02 -4.83514e-02
  9.51054e-02  4.45718e-01  5.48493e-01
 -1.93003e-01  1.35430e-04 -9.94950e-01
  8.61477e-02 -2.87677e-01 -2.39118e-02
 -7.10203e-03  8.06758e-02 -9.92080e-01
 -2.84822e-01  8.94770e-02 -5.85680e-01
 -1.86870e-01 -3.77012e-01  6.64145e-01
 -1.70780e-01  3.23370e-01  2.60472e-01
  2.71760e-01  1.43043e-01 -8.20850e-01
 -2.32296e-01 -2.88034e-01  2.61076e-01
  3.19566e-01 -1.07826e-01  6.80516e-01
 -2.13577e-01  1.44569e-01 -1.00700e+00
  1.81037e-01  2.28447e-01 -6.67472e-01
  2.24772e-01  3.64461e-01  6.78025e-01
  1.39011e-01 -2.00792e-01 -1.00752e+00
 -1.04963e-01 -2.80758e-01 -4.72946e-01
  1.68587e-01 -2.65264e-01 -8.92203e-01
 -2.00959e-01 -4.45884e-01  6.00133e-01
 -5.20716e-03  4.55775e-01  5.39416e-01
  2.72493e-01  1.46237e-01 -9.05209e-01
  2.93563e-01 -8.87494e-02  2.50450e-01
  2.87876e-01  8.87942e-02 -5.86385e-01
 -2.64511e-01 -1.43165e-01 -1.63301e-02
  5.74063e-02  2.90978e-01  1.27421e-01
 -4.52437e-01 -1.10391e-01  4.18947e-01
  3.24326e-02  3.04703e-01 -6.29396e-01
  1.18169e-01  2.79461e-01 -6.02737e-01
 -2.49847e-01  1.54129e-01 -8.63150e-03
  3.13465e-01  3.71363e-01  3.62752e-01
  1.71460e-01  2.57709e-01 -4.15435e-01
  1.40899e-01 -2.70240e-01 -3.21778e-01
  1.86207e-02  7.66174e-02  6.81979e-01
  1.08952e-01  3.53811e-03 -9.93990e-01
 -4.51111e-01 -1.26371e-01  3.71577e-01
 -1.85574e-01  4.50773e-01  5.68417e-01
 -5.61988e-02 -3.00015e-01  2.07786e-01
  2.66527e-01  7.55812e-02 -9.96001e-01
 -2.95838e-01  4.42028e-02 -4.02204e-01
 -1.42397e-01  2.67515e-01 -9.18034e-01
 -1.48009e-01  3.21055e-01  2.57735e-01
 -2.39404e-01 -5.54758e-03 -9.92887e-01
  4.45248e-02  4.44850e-01  5.74676e-01
  1.39272e-02  3.17349e-01  2.62907e-01
 -4.40198e-02 -4.46900e-01  4.33395e-01
  2.23174e-01 -2.12136e-01 -5.53964e-01
  1.58649e-01 -2.64455e-01  6.65838e-01
 -4.16044e-02  3.19223e-01  6.75068e-01
  1.87644e-01 -2.32315e-01  1.14991e-01
  2.94809e-01  7.16894e-02 -1.27253e-01
  2.28746e-01 -2.31300e-01  6.82990e-01
 -2.12962e-01  2.04016e-01 -3.94888e-01
 -2.39221e-01 -1.98210e-01 -5.54112e-01
 -6.09880e-02 -4.55284e-01  6.58559e-01
 -2.86768e-01  8.86547e-02 -9.44799e-01
  1.97432e-01  4.41782e-01  5.67828e-01
  7.33378e-02  3.00020e-01 -7.52345e-01
  2.25801e-01 -2.01723e-01 -4.54193e-01
 -4.34760e-01  1.56876e-01  6.01642e-01
 -3.95363e-01  2.26593e-01  5.64438e-01
 -3.25121e-01 -2.57890e-01  6.65748e-01
 -2.27050e-01 -4.55174e-01  6.36833e-01
  2.87989e-01  1.08944e-01 -5.08971e-01
 -4.64652e-02 -1.70423e-01  6.83208e-01
 -2.95039e-01  8.70728e-02  2.62113e-01
 -1.94295e-01  2.30377e-01  2.25815e-01
 -3.69231e-01 -2.47798e-01  4.87073e-01
 -2.87898e-02  1.60149e-01  6.80386e-01
  3.07937e-01  3.64681e-01  6.68595e-01
 -2.12714e-01 -2.16280e-01 -7.35370e-01
 -2.77366e-01 -1.07772e-01  9.95711e-02
  3.13546e-01 -2.60234e-01  2.58183e-01
 -1.18635e-01  2.68674e-01 -9.70177e-01
 -1.53733e-01  2.46611e-01 -1.38786e-01
  1.64940e-01  2.42628e-01 -2.58283e-01
 -3.45868e-01 -2.98580e-01  4.90306e-01
  2.72635e-01 -4.33159e-01  4.79811e-01
 -1.60488e-01  2.60865e-01 -8.85163e-01
 -2.97691e-01  3.86833e-01  4.88797e-01
  1.17910e-02 -3.04918e-01 -9.39756e-01
  2.60597e-01  1.68425e-01 -2.65391e-01
 -3.02879e-01  5.61123e-02 -8.72755e-01
  4.10129e-03 -1.34098e-01  6.69099e-01
 -4.80225e-01 -1.09078e-03  2.64405e-01
  3.95990e-01 -2.26577e-01  3.25069e-01
  2.86237e-01  7.31985e-02 -6.57816e-01
  6.60743e-02  3.79890e-01  2.61433e-01
  2.35444e-01 -4.28089e-01  2.64486e-01
  2.23417e-01 -4.49913e-01  2.63263e-01
  4.31669e-03 -3.03476e-01 -9.09204e-01
  2.36285e-01  2.01837e-01 -9.53316e-01
  3.89542e-01 -1.17834e-01  2.61913e-01
 -2.24323e-01 -4.63310e-01  3.67023e-01
 -1.83443e-01 -4.07246e-01  2.51876e-01
  4.63535e-01 -1.09002e-02  6.57727e-01
  2.16931e-01  3.42629e-01  6.82136e-01
  1.13438e-01 -2.85440e-01  4.03022e-02
  4.19037e-01 -1.74955e-01  6.74040e-01
  2.94241e-01  3.75217e-01  6.69996e-01
 -1.16015e-01  2.69706e-01 -2.88207e-01
 -1.73023e-01 -2.75954e-01  2.49974e-01
  9.37810e-02 -4.02085e-01  6.79255e-01
  8.65569e-02  2.60936e-01 -9.96098e-01
 -5.12353e-01 -3.37808e-02  5.85483e-01
  9.51139e-02  2.41886e-02  6.80472e-01
 -3.27756e-02  3.64951e-01  6.75266e-01
 -2.74627e-01  4.23802e-01  4.06789e-01
 -2.42416e-02 -3.07410e-01 -2.56091e-01
 -2.89889e-01  9.39944e-02  8.75627e-03
 -2.14480e-01  4.44555e-01  2.57076e-01
  9.18001e-02  4.44577e-01  6.67120e-01
 -2.65273e-01 -1.43548e-01  1.10266e-01
 -9.64430e-02 -4.58169e-01  3.92325e-01
 -1.43545e-01  3.34354e-02 -9.93152e-01
 -5.76529e-02 -1.26102e-01  6.67486e-01
 -8.24823e-02 -3.01762e-01 -4.52554e-01
 -8.21707e-02  1.64705e-01 -1.00070e+00
  3.11238e-01  3.58475e-01  4.28951e-01
 -4.84027e-02  2.89774e-01 -3.23115e-01
 -1.14914e-01  6.56989e-02 -9.96657e-01
  1.53198e-01 -4.53524e-01  5.32965e-01
 -1.54543e-01 -4.62238e-01  6.24621e-01
 -1.15298e-01 -2.72455e-01 -6.36132e-01
 -1.51319e-01 -2.61836e-01  1.65379e-01
 -2.85494e-01  6.36655e-02 -5.18606e-01
 -7.87948e-02 -2.89925e-01 -7.49824e-01
 -9.04123e-02 -2.89903e-01 -7.64487e-01
  1.91252e-01  2.40287e-01 -7.14966e-01
  1.04584e-01 -2.80151e-01 -2.12767e-01
  1.40048e-01  4.60287e-01  4.31628e-01
  1.01144e-01 -9.23167e-02 -1.00531e+00
 -2.84341e-01 -1.26856e-01  8.76483e-02
  1.57977e-01 -2.56270e-01  1.93274e-01
  2.15697e-01  2.23704e-01 -4.50739e-02
  2.25398e-01 -2.19536e-01  5.25608e-02
  2.26827e-01  2.05809e-01 -8.00221e-01
 -2.55328e-01 -1.79074e-01 -4.48167e-01
 -3.96373e-01 -2.24896e-01  5.48688e-01
  7.50455e-02 -3.14371e-01  6.72169e-01
 -1.00479e-03 -6.90221e-02 -1.00600e+00
 -2.15981e-01  4.38790e-01  2.48822e-01
  2.41618e-01  1.64465e-01  1.33641e-01
  2.58523e-01 -4.47251e-01  3.95219e-01
 -4.49484e-01 -1.31809e-01  4.57915e-01
  9.05766e-02 -2.25521e-01  6.77437e-01
  6.53215e-02 -4.59016e-01  6.19316e-01
  2.45298e-01  1.81476e-01  1.99932e-01
 -4.81570e-02 -1.78976e-01  6.72106e-01
  3.30833e-01 -2.37779e-02  2.60961e-01
 -3.18575e-01 -3.39260e-01  2.56444e-01
 -1.62091e-01 -1.54433e-01 -1.00302e+00
 -1.27656e-01  2.69590e-01 -3.64675e-01
  2.92915e-01  9.96320e-02 -4.96788e-01
 -4.81319e-02 -3.03627e-01 -3.43287e-01
  3.77444e-01  2.08131e-01  2.62032e-01
 -2.77950e-01  2.79237e-01  2.50110e-01
  1.07395e-01 -2.87009e-01 -1.67089e-01
 -2.95170e-01  3.76813e-01  4.00483e-01
 -2.82058e-01  1.05542e-01  2.12933e-01
 -2.77717e-02  2.81891e-01  6.80342e-01
 -1.48157e-01 -2.56810e-01 -7.51952e-01
  2.04995e-01 -3.21744e-01  6.72536e-01
 -5.13865e-01 -2.56828e-02  3.73754e-01
  1.62019e-01  2.43609e-01 -5.64508e-01
  2.77550e-01 -1.07312e-01 -1.00143e+00
 -4.42306e-01 -1.20476e-01  3.00973e-01
 -1.03162e-01  4.41885e-01  6.64786e-01
 -1.83751e-01 -2.34771e-01  2.35352e-02
  1.28788e-01  2.81695e-01 -7.50143e-01
 -3.15197e-04  4.48614e-01  3.98346e-01
 -2.68687e-01 -1.15280e-01 -8.85623e-01
  1.68264e-01 -2.58832e-01 -8.51773e-01
  2.17474e-01  2.19290e-01  1.36972e-01
 -3.92952e-01  2.25162e-01  2.79059e-01
 -1.94750e-01  2.16459e-01 -8.68022e-01
  4.72397e-01 -8.87821e-02  3.61129e-01
  4.88628e-01 -8.12239e-02  4.76197e-01
  2.07092e-01 -2.35921e-01  1.59541e-01
 -2.82540e-01  1.26575e-01 -3.43879e-01
  2.66669e-01 -1.53110e-01 -8.55119e-01
 -3.59585e-01  4.59883e-02  6.74343e-01
  2.13233e-01 -2.11006e-01 -3.27440e-01
 -6.68245e-02 -2.92133e-01  6.86832e-02
 -2.97955e-01 -8.58044e-02  6.83234e-01
  2.96399e-01 -6.87799e-03 -9.49144e-01
 -4.08033e-01 -2.03676e-01  3.16560e-01
  2.04374e-01 -8.84708e-02 -9.96206e-01
 -2.35370e-01 -9.70550e-02  6.67515e-01
 -4.79518e-01  6.96508e-02  5.86563e-01
 -1.03972e-01 -2.82567e-01 -1.88891e-01
  3.02931e-01 -4.47490e-02 -2.42463e-01
 -2.52034e-01  1.71411e-01 -6.27327e-01
  9.46512e-02  2.90630e-01 -1.33693e-01
  5.44679e-02 -3.07184e-01  8.74143e-02
 -1.34393e-01 -1.66817e-01  6.76552e-01
 -1.24372e-01 -2.82124e-01  3.05100e-02
 -2.83466e-01  3.82743e-01  2.60841e-01
 -3.02449e-01 -6.30230e-02 -6.58275e-01
  2.54617e-01 -4.52988e-01  6.31962e-01
  1.92313e-01 -2.31054e-01 -4.50254e-01
  4.83338e-01  5.90373e-02  5.04125e-01
 -3.02072e-01  2.64147e-02 -8.78627e-01
 -1.96428e-01  2.35449e-01  1.49259e-01
 -2.99687e-01  6.89220e-02 -6.08905e-01
 -1.85723e-01 -3.27958e-01  6.67368e-01
  3.00016e-01  2.33421e-02 -9.81398e-01
 -3.07084e-01  2.90990e-02 -5.32258e-01
  2.95309e-01 -4.62649e-02 -5.87564e-01
  1.08950e-01 -2.89312e-01 -9.78891e-01
  7.74749e-02  1.74930e-01  6.73424e-01
  2.77005e-01  1.06537e-01 -7.61413e-01
  2.26273e-01 -2.10531e-01 -5.34981e-01
 -3.42795e-01 -3.09462e-01  5.97552e-01
 -1.33727e-01 -4.53435e-01  4.89491e-01
 -2.24449e-01  4.54267e-01  4.49923e-01
  1.92630e-01 -2.37560e-01 -4.52065e-01
 -4.71541e-01 -4.99570e-02  2.45501e-01
 -3.29972e-01 -3.23652e-01  5.94288e-01
  2.79377e-01 -1.19337e-01 -6.08438e-01
 -1.34878e-01 -2.77424e-01 -7.11476e-01
 -2.59467e-01 -4.53894e-01  2.61000e-01
 -5.90606e-02 -3.26304e-01  2.62932e-01
  1.60900e-01  3.08973e-01  2.62837e-01
 -2.15114e-01  2.24255e-01  6.69361e-01
  2.95930e-01 -7.43205e-02 -5.65229e-01
 -3.06465e-01 -8.63316e-02  2.55809e-01
  3.05582e-01 -5.47153e-02 -8.05906e-01
  1.87060e-01 -2.53099e-01 -4.33817e-01
  2.33082e-01  1.82904e-01 -3.98536e-01
  2.61585e-01 -1.36606e-01 -8.66016e-01
 -3.45708e-04 -4.57039e-01  2.64347e-01
 -1.70566e-01 -3.71086e-01  6.75039e-01
 -9.56497e-02  2.89214e-01 -7.84306e-02
 -6.62975e-02 -3.59066e-01  2.59984e-01
  5.06619e-01  4.15601e-02  3.17138e-01
 -4.29730e-01  1.54436e-01  2.69564e-01
 -1.98002e-01  2.35282e-01 -8.12949e-01
  2.64746e-01 -1.52700e-01 -7.70687e-01
  1.11812e-01 -4.48189e-01  6.75500e-01
 -1.00464e-01  2.77603e-01  2.11523e-01
  2.88053e-01 -9.68629e-02 -7.52066e-01
  8.21966e-02  4.44925e-01  5.55196e-01
 -3.07294e-01 -2.71368e-02  6.33774e-02
  2.88957e-01 -9.78424e-02 -6.65541e-01
  2.41218e-01  1.78814e-01 -6.98705e-02
  1.91803e-01 -2.31375e-01 -9.82185e-01
 -2.21032e-01 -1.95454e-01 -5.73717e-01
 -1.77121e-01  4.53668e-01  3.42755e-01
 -4.88390e-01  7.46152e-02  4.59588e-01
  2.04730e-01  4.44047e-01  5.34426e-01
  2.86949e-01 -7.95992e-02  9.79257e-04
  2.44507e-01 -1.98051e-01 -9.77865e-01
  1.87119e-01  2.32917e-01  6.20691e-03
 -1.19427e-01 -2.84725e-01 -7.30779e-01
  3.00990e-01  1.19916e-02 -1.98101e-01
  4.83967e-01 -3.23863e-02  6.48279e-01
 -4.56705e-01  9.27118e-02  4.21126e-01
 -1.34845e-01  4.48764e-01  6.14663e-01
  1.21279e-01  2.78769e-01 -9.09675e-02
  1.87498e-01  2.38832e-01 -6.36823e-01
  3.41438e-01 -2.44485e-01  2.49119e-01
 -1.36064e-01 -2.64305e-01 -4.63346e-04
  2.67145e-01 -1.50878e-01 -4.58596e-01
  3.10530e-01 -1.82210e-02 -2.73805e-01
 -4.13089e-01 -2.01698e-01  4.66928e-01
 -3.13264e-01 -3.45550e-01  2.65993e-01
  3.77575e-01  2.60153e-01  5.41811e-01
  4.99205e-01 -5.67253e-02  5.78012e-01
  1.86018e-01 -2.53310e-01 -2.66958e-01
 -1.13740e-01 -2.74443e-01 -9.08983e-01
 -4.18599e-01  1.62229e-01  4.81779e-01
 -1.31575e-02  4.26178e-01  2.56954e-01
 -2.12532e-01 -7.70454e-02  6.82787e-01
  2.08626e-01 -2.13816e-01 -9.65799e-01
 -2.93575e-01 -3.39932e-02 -2.43728e-01
 -1.16781e-02  3.03766e-01 -1.64259e-01
  1.29058e-01  7.82785e-02  6.74576e-01
 -2.95948e-01 -3.22892e-01  6.71647e-01
  2.95412e-01  3.91474e-01  5.55875e-01
  2.76419e-01 -4.92031e-02 -9.91139e-01
 -3.00947e-01  2.85534e-01  2.48714e-01
  3.91181e-01  2.29538e-01  4.85569e-01
 -2.67945e-01 -3.46676e-01  6.82636e-01
  3.00682e-01  7.32528e-02 -2.83756e-01
  2.63520e-01 -1.66946e-01  6.39588e-02
  3.94885e-01  2.03720e-01  5.29262e-01
 -1.88906e-01  1.03821e-02  6.76317e-01
  1.17613e-02  4.60923e-01  2.87739e-01
 -8.49346e-02  2.79488e-01 -2.36040e-01
 -3.09790e-01  3.84170e-01  4.00856e-01
  2.76995e-01 -4.40275e-01  6.05491e-01
  3.22633e-01  3.68043e-01  3.06171e-01
 -2.18148e-01  2.04528e-01 -7.96028e-01
 -1.07016e-01  4.54395e-01  3.62501e-01
  4.07895e-01  1.95448e-01  4.08826e-01
 -2.97610e-01  6.03568e-02 -8.41626e-02
  3.07064e-01 -1.90551e-01  6.68566e-01
  2.32032e-01  2.58686e-01  6.66290e-01
 -4.12610e-01 -1.92333e-02  6.78826e-01
 -4.57663e-02  1.03668e-01 -1.00893e+00
 -3.71183e-01  2.52113e-01  4.17677e-01
 -2.48365e-01  1.76538e-01 -7.15798e-01
 -1.56075e-01  3.00712e-01  6.70223e-01
 -2.88126e-01 -5.92073e-02 -1.46563e-01
  2.57129e-01 -1.60157e-01 -8.31905e-01
  1.13094e-02  8.50484e-02  6.64408e-01
 -5.04258e-01 -5.02993e-02  5.01134e-01
  1.78283e-01  4.11291e-01  6.78151e-01
 -4.71250e-01  9.51509e-02  2.56722e-01
  9.07116e-02 -2.83488e-01 -6.24432e-02
 -5.84713e-02  1.22116e-01 -9.92864e-01
  3.04379e-01 -5.30675e-02 -3.27212e-01
  6.18016e-03 -1.95282e-01 -9.90217e-01
  2.90483e-01 -1.12803e-01  1.45557e-01
  1.37284e-01 -2.72607e-01 -1.61964e-01
 -3.18236e-01 -2.43357e-01  2.58927e-01
 -5.33125e-02 -2.94302e-01  2.03112e-01
  3.66263e-01  1.67571e-01  6.69207e-01
 -1.84717e-01 -2.52204e-01 -9.17127e-01
 -2.11407e-02 -2.99308e-01 -7.64941e-01
  7.27854e-03  4.57988e-01  4.51626e-01
 -2.36731e-01  1.81025e-01 -8.56761e-01
  1.36942e-01 -4.55055e-01  3.90271e-01
 -2.60678e-01 -1.31346e-01 -6.13344e-01
  5.31954e-02 -3.01710e-01 -5.71314e-01
 -1.91673e-02 -4.60544e-02  6.64222e-01
  4.51471e-01 -1.31632e-01  2.74604e-01
  2.77508e-01 -1.14455e-01  6.76423e-01
  1.69481e-01 -2.51504e-01  2.10471e-01
 -2.03382e-01 -2.10828e-01 -5.04917e-02
  2.87998e-01  8.65650e-02 -5.43725e-01
  2.60567e-01  1.68597e-01 -2.62120e-02
 -2.97493e-01 -1.69087e-02 -2.78756e-01
  2.45087e-01  3.97201e-01  2.63341e-01
  2.50776e-01 -1.61345e-01 -3.26976e-01
 -5.21448e-01 -1.62416e-02  6.15851e-01
  3.09455e-01 -2.80562e-02 -5.98294e-01
 -2.58496e-01  1.42290e-01 -3.80112e-01
 -2.51625e-01  1.75481e-01 -2.56661e-01
  5.08441e-01  1.26379e-02  4.98064e-01
 -2.40452e-01 -1.90130e-01  8.41613e-02
 -2.46984e-01 -1.86035e-01 -6.27916e-01
  1.38808e-01  4.32148e-01  2.61580e-01
 -2.80353e-01 -4.07112e-01  2.81764e-01
  1.06927e-01  2.88243e-01  4.35046e-02
 -2.98889e-01  3.86538e-01  3.30501e-01
  2.86501e-01  7.88440e-02  3.19315e-02
 -1.95255e-01 -4.47315e-01  3.29135e-01
 -2.20234e-01  1.92991e-01 -5.91853e-03
 -4.74154e-01 -1.03026e-01  2.96949e-01
 -1.05644e-01  2.56341e-01  6.80161e-01
  2.31520e-01  4.54155e-01  5.00786e-01
 -1.43900e-01 -1.91920e-01  6.68710e-01
  8.37469e-02  1.55987e-01 -1.00136e+00
  2.87558e-01  4.12623e-01  6.14231e-01
 -3.79481e-02  2.97831e-01 -9.61724e-01
 -3.78327e-01 -2.41530e-01  4.93578e-01
  2.92589e-01  4.07631e-01  5.09441e-01
  2.15897e-01  2.11825e-01  1.68713e-01
  2.46545e-01  1.77345e-01 -8.44144e-01
  2.73504e-01 -1.15767e-01 -3.46967e-01
  2.39160e-01 -2.03445e-01 -3.52128e-01
  1.49494e-01  2.68573e-01 -1.15259e-01
  3.07442e-01  2.28568e-02 -3.73316e-01
 -2.22164e-01 -2.06442e-01 -7.45003e-01
  2.63455e-01  1.64465e-01 -3.40978e-01
 -2.98269e-01 -7.59790e-02 -8.82059e-01
 -3.83997e-01 -1.41655e-01  2.60773e-01
 -2.67540e-01  1.20674e-01 -8.36192e-02
  4.59266e-01 -1.14870e-01  4.36243e-01
  3.51189e-03  2.43357e-01  6.64858e-01
 -2.29874e-02  4.53989e-01  4.91390e-01
  2.69374e-01  1.52638e-01 -3.21726e-01
  4.71972e-01 -1.00790e-01  4.64441e-01
  7.59970e-02  2.32418e-02  6.81736e-01
  1.59781e-01 -2.57569e-01  5.11653e-02
 -2.37804e-01  9.32491e-02  6.72642e-01
 -7.15080e-02 -2.90072e-01 -7.52113e-01
 -2.82476e-01 -1.11873e-01 -8.20605e-01
  3.89321e-01  2.32633e-01  4.93700e-01
 -3.79695e-01  6.81048e-02  2.52498e-01
 -2.74245e-02 -4.64266e-01  3.23904e-01
  1.80643e-01 -2.40014e-01 -3.70240e-01
 -5.10346e-01  2.43039e-02  5.50054e-01
 -1.15451e-01 -2.85937e-01 -5.22595e-01
  7.95312e-02 -2.86870e-01 -3.87166e-01
 -2.56567e-01  1.44368e-01 -2.66857e-01
 -1.10896e-02 -4.47388e-01  2.61708e-01
 -1.46527e-02 -3.31272e-01  6.71454e-01
  2.95908e-01  4.09089e-01  4.50267e-01
  3.09634e-01  3.75362e-02  5.90436e-02
  2.26429e-01  2.07562e-01 -6.83997e-01
 -2.08662e-01 -2.08595e-01 -6.08231e-01
  1.65153e-01  3.98468e-01  6.79139e-01
 -2.07541e-01 -2.18176e-01 -8.66829e-01
  1.79378e-01  2.36395e-01 -2.92689e-02
 -2.98243e-01 -6.99252e-02 -4.12529e-02
  3.04290e-01 -1.14891e-02 -7.44609e-02
  1.98726e-01  2.35132e-01  1.12417e-02
  8.95163e-02  2.78959e-01  1.23882e-02
 -4.09823e-01 -1.91296e-01  4.43072e-01
 -5.17963e-02  2.99095e-01 -7.35848e-01
 -1.62151e-01  2.53374e-01 -9.51509e-01
 -2.37374e-01 -1.95653e-01 -3.53027e-02
 -2.94843e-01 -3.83744e-01  2.60687e-01
 -1.53535e-01 -2.58332e-01 -5.07087e-01
 -2.67458e-01  1.12453e-01  7.21312e-02
 -2.77258e-01  1.32057e-01  1.34155e-01
 -1.50959e-01  1.45434e-01 -9.92640e-01
  3.18255e-01 -2.22818e-01  2.53038e-01
 -2.97333e-01 -8.84286e-03 -1.82021e-02
  1.39929e-01  2.59013e-01 -7.52253e-01
 -3.53649e-01  2.85761e-01  6.73727e-01
 -2.00235e-01  2.20901e-01 -1.33279e-01
  1.19554e-01 -2.89555e-01 -5.58780e-01
  3.45995e-01 -3.11638e-01  4.10046e-01
  3.89974e-01 -2.19793e-01  4.36429e-01
  2.55247e-02 -3.09084e-01 -9.71438e-01
 -1.08496e-02 -4.59451e-01  6.24236e-01
  3.09359e-01  1.62073e-02 -6.69376e-01
  3.10122e-01  4.05425e-02 -7.76066e-01
  2.31380e-01 -1.98880e-01 -3.96659e-01
 -3.12430e-01  3.21744e-01  6.82811e-01
  3.10336e-01  3.72275e-01  6.00481e-01
 -2.98862e-01 -7.58697e-02  6.83008e-01
 -1.41389e-01  2.60936e-01 -3.30880e-01
 -7.54285e-02  2.80439e-01 -1.73501e-01
 -1.38802e-01 -2.68325e-01 -5.18022e-01
  6.96625e-02  4.31423e-01  2.58889e-01
  9.94325e-02 -4.29517e-01  6.79403e-01
  1.69535e-02  2.96683e-01 -5.34267e-01
 -1.73313e-03  2.98928e-01 -8.34134e-01
  7.74307e-02 -2.94045e-01 -8.58702e-01
  2.81840e-01 -9.98635e-02 -3.67512e-01
  2.67476e-01  4.28199e-01  4.28564e-01
  1.33608e-01  2.72665e-01 -7.09497e-01
 -1.36134e-01 -2.77958e-01  8.93334e-02
  8.93770e-02  4.60341e-01  2.90540e-01
  1.02225e-01  4.12331e-03 -1.00176e+00
 -3.00760e-01  5.13747e-02 -4.76240e-01
  3.01436e-01 -2.38945e-02  1.99328e-01
  9.60060e-02 -3.95415e-01  6.80813e-01
  2.06469e-01 -4.56161e-01  5.95384e-01
 -2.77089e-01 -1.31338e-01 -9.36778e-01
  6.18921e-02 -2.99521e-01 -8.37565e-01
  2.47929e-01  1.56707e-01  2.07091e-01
  1.99604e-01 -2.23302e-01 -9.83984e-01
  2.01265e-01  2.13032e-01 -8.56622e-01
 -9.46497e-02 -2.93058e-01 -9.43375e-01
  1.99836e-01 -9.66898e-04  6.75149e-01
  2.97602e-01 -2.63110e-02 -6.32114e-01
  7.70769e-02 -2.99909e-01  8.27550e-02
 -5.83789e-02  2.92024e-01 -9.50972e-01
 -1.23767e-01 -4.51487e-01  4.20261e-01
  1.96242e-01 -2.41314e-01  8.80194e-02
  2.77682e-01  2.96532e-01  6.79341e-01
 -5.30994e-02 -2.54204e-02 -1.00403e+00
 -2.48460e-01  4.52117e-01  4.16841e-01
 -5.84759e-02  1.25065e-01 -1.00700e+00
 -4.54670e-02  3.59410e-01  2.58250e-01
  9.60869e-02 -4.54329e-01  3.17764e-01
 -2.93306e-01  6.88890e-02 -7.28068e-02
 -3.63811e-02 -3.36697e-01  6.76842e-01
 -5.55809e-02  8.02104e-02 -1.00131e+00
 -2.10521e-01 -2.08260e-01 -9.82913e-01
 -1.55276e-01  2.67486e-01 -4.79097e-01
  6.81024e-02  3.14849e-01  6.76676e-01
  2.02764e-01 -2.26951e-01 -1.35054e-01
 -2.49725e-02 -5.43010e-03 -1.00421e+00
 -2.56537e-01  1.62849e-01 -8.18904e-01
 -3.29429e-01  1.59198e-01  2.57588e-01
  2.87355e-01  4.19593e-01  4.55159e-01
  2.54060e-01  4.52826e-01  4.31749e-01
 -2.83961e-01  4.20902e-01  5.87834e-01
 -5.95857e-03  1.40925e-01  6.70364e-01
  2.20792e-01  4.50018e-01  5.17250e-01
 -3.61921e-01 -2.92574e-01  4.97522e-01
 -8.32853e-02 -4.47089e-01  4.09232e-01
 -1.82390e-01  2.41792e-01  1.83227e-01
 -2.66087e-02  3.11942e-01  2.63068e-01
 -1.25959e-01 -2.75207e-01  1.92340e-01
 -2.83146e-01 -4.11018e-01  4.76310e-01
  3.41308e-01  3.04585e-01  6.59680e-01
  2.97910e-01  9.09037e-02 -9.13546e-01
 -1.14573e-01 -2.89199e-01  1.19057e-01
  2.23433e-01 -2.73548e-01  6.69327e-01
  1.58211e-01 -2.67827e-01  1.83625e-01
  2.55854e-01 -1.97457e-02 -9.95333e-01
  4.32785e-01  1.41009e-01  5.70816e-01
  1.64693e-01  2.75782e-01  2.49894e-01
 -5.15673e-01  9.69349e-03  2.70706e-01
 -2.77285e-01 -4.40624e-01  2.64127e-01
  4.52883e-01  3.56597e-02  6.65794e-01
  2.07102e-02  1.55765e-01 -9.96312e-01
 -1.10217e-01 -2.82707e-01 -4.42762e-01
 -1.69008e-02  2.98808e-01  2.48978e-01
  1.42864e-01  2.59263e-01 -1.43945e-01
 -3.77550e-01  3.26346e-02  2.61512e-01
 -1.78613e-01  1.42217e-01 -1.00032e+00
  2.63194e-01 -1.43045e-01 -1.32623e-01
 -1.51504e-01 -2.72857e-01  2.60738e-01
  5.73771e-02 -3.08271e-01 -2.41115e-01
 -3.66337e-02 -3.04900e-01 -9.02624e-01
  3.33782e-01  3.08821e-01  5.68300e-01
 -2.88989e-01  1.09219e-01  2.57116e-01
 -3.63944e-01  2.63928e-01  4.08275e-01
 -1.20276e-01  2.69540e-01 -7.99632e-01
  5.55702e-02 -2.91633e-01 -4.86351e-01
  2.74523e-01  1.47255e-01  2.20505e-02
  1.24510e-01  2.76317e-01 -3.65960e-01
  2.94124e-01  6.51641e-02 -5.84986e-01
 -4.18327e-01 -1.68021e-01  6.69150e-01
 -2.90215e-01  3.02523e-02 -9.40519e-01
  1.14920e-01  2.69610e-01 -1.00067e+00
 -1.41737e-01  2.56144e-01 -3.82393e-01
  1.19654e-01  4.47230e-01  2.58234e-01
  3.01589e-01 -4.68173e-02  1.01666e-01
  2.89339e-01 -1.07172e-01 -6.38515e-01
  4.50989e-01 -1.41591e-01  3.07781e-01
  1.77198e-01 -8.73977e-02 -1.00068e+00
  1.49006e-01 -3.97408e-01  6.75365e-01
  2.59582e-01  4.41534e-01  5.00601e-01
 -1.07924e-01  2.91271e-01  2.61572e-01
 -3.22707e-01 -3.04311e-01  6.76537e-01
 -2.01399e-01  3.53949e-01  2.45541e-01
  2.70582e-01  1.61086e-01  6.76261e-01
 -2.94691e-01 -3.33225e-01  6.69031e-01
 -2.82357e-01 -1.28766e-01 -7.51214e-01
 -2.71634e-01  1.09319e-01 -8.50063e-01
  3.67855e-01  8.19664e-02  6.79006e-01
  8.88565e-02  4.59239e-01  5.19757e-01
  2.91788e-01 -3.01927e-01  2.51691e-01
 -3.89611e-01 -1.63868e-01  2.62539e-01
  1.52026e-01 -2.58325e-01  6.71560e-01
  1.85353e-01 -2.47338e-01 -7.53237e-01
  2.84219e-01  8.51294e-02 -8.35970e-01
  2.71956e-01  1.06196e-01  6.72051e-01
  1.31461e-01  4.42709e-01  2.86524e-01
 -3.91513e-01 -2.17457e-01  4.10691e-01
 -1.22156e-01  4.56866e-01  2.84430e-01
 -8.06955e-02 -2.96526e-01 -7.82373e-01
  6.02534e-02  2.88918e-01  1.63925e-01
  1.69261e-02 -3.04047e-01  1.79899e-01
  8.84896e-02  2.78316e-01 -6.37411e-01
  1.20143e-01  7.59183e-02 -9.92778e-01
 -2.40220e-01  4.34404e-01  6.55948e-01
 -3.02371e-01  1.11092e-01  6.80983e-01
  2.77526e-01  2.82322e-01  6.64772e-01
 -5.03447e-01  3.78803e-02  3.83907e-01
 -2.98574e-01  3.23781e-02  6.81303e-01
  2.16301e-01  2.14660e-01 -5.65594e-01
  4.61677e-01 -1.07723e-01  4.03938e-01
  1.60633e-01  2.62127e-01 -5.48099e-01
 -8.15664e-02  4.48492e-01  4.26921e-01
  4.05763e-01  2.02241e-01  3.24289e-01
  1.24111e-01 -2.75020e-01  6.82102e-01
  2.11790e-01  2.00930e-01 -7.62675e-01
 -1.58177e-01  2.56912e-01 -2.53804e-01
  1.33641e-01  2.73250e-01 -5.36630e-01
  3.06581e-01 -3.63761e-01  2.94238e-01
 -3.04411e-01  4.04556e-02 -9.62603e-01
  2.23134e-01  2.00178e-01 -5.21820e-01
  3.08002e-01  1.14667e-02  6.11955e-02
  1.78345e-01 -1.36498e-01  6.66324e-01
 -8.28378e-02 -3.01913e-01 -6.85107e-01
 -3.02801e-01 -3.91747e-01  3.71671e-01
  6.16258e-02  2.94037e-01 -4.04921e-01
 -2.09048e-01 -2.30137e-01 -8.99943e-01
 -2.09441e-02  3.04469e-01 -7.05183e-01
 -4.17083e-01  1.83500e-01  4.13860e-01
  1.81636e-01  1.15096e-01  6.65575e-01
  2.77737e-01  1.30845e-01 -2.68762e-01
 -1.79642e-01 -1.56519e-01  6.75425e-01
  5.90532e-02  2.91482e-01 -8.89026e-01
 -6.28755e-02 -1.37044e-01  6.66140e-01
  2.34015e-01  1.97842e-01  2.56874e-01
  2.91504e-01 -1.07225e-01  9.17556e-02
 -1.41364e-01  2.60276e-01 -3.16258e-01
 -4.32787e-01 -4.40947e-02  6.83764e-01
 -9.03320e-02  4.41654e-01  3.08480e-01
  2.11201e-01  2.28580e-01  1.07762e-03
  3.51943e-01  1.06297e-01  6.78980e-01
 -3.42077e-02 -2.94144e-01 -7.84991e-01
 -2.92662e-01  4.69367e-02 -7.03259e-01
 -1.29847e-01 -1.34407e-01  6.77667e-01
  2.84648e-01 -8.35045e-02 -2.38909e-01
  6.38324e-02 -4.57474e-01  5.70018e-01
 -1.56962e-01  3.78868e-01  6.75572e-01
  1.63557e-01 -2.46804e-01 -5.19727e-02
  3.08483e-01 -3.89546e-01  5.97255e-01
  2.53261e-01 -1.67448e-01 -9.11688e-02
 -5.11249e-01 -1.12378e-02  2.98383e-01
  7.53867e-02  2.90562e-01  1.61669e-01
 -4.22188e-02 -3.35820e-01  6.74713e-01
 -2.53236e-01 -1.48744e-01 -6.20614e-01
  2.07041e-01  2.18530e-01 -7.76761e-01
  3.76697e-01 -2.78393e-01  2.98921e-01
  2.95532e-01  9.29517e-02 -7.00842e-01
  2.76340e-02 -2.09922e-01 -9.91879e-01
 -2.62431e-01  1.41423e-01 -1.24014e-01
 -4.88995e-01 -5.42108e-02  3.16332e-01
 -1.12202e-02 -3.74650e-01  6.78702e-01
  2.56128e-01  2.36896e-01  2.62571e-01
 -2.40906e-02 -3.05615e-01  2.58113e-01
  3.03447e-01 -2.92152e-02 -4.20046e-01
  2.26921e-01  1.85790e-01 -6.58414e-01
 -4.12356e-01  1.83547e-01  3.27831e-01
 -5.50925e-02  2.95528e-01 -6.94804e-01
 -2.51060e-01 -1.61502e-01 -8.37399e-01
 -2.84196e-01  9.57653e-02 -1.94814e-01
  2.63045e-01  1.58085e-01 -4.98087e-01
 -2.52434e-01  1.77041e-01  1.60814e-01
  2.96125e-01  2.78647e-01  2.47762e-01
  3.71875e-01  4.27644e-02  6.79645e-01
 -2.44202e-01  4.42748e-01  5.25969e-01
  4.81245e-01 -6.69583e-02  3.56990e-01
  9.87999e-02 -2.82418e-01 -5.61631e-01
  2.20909e-01  2.14983e-01 -3.33962e-01
  1.19336e-01  2.72928e-01  4.07234e-02
  2.68620e-02 -4.50375e-01  6.51674e-01
  4.71677e-01 -7.69077e-02  2.49769e-01
 -3.24451e-01  7.02883e-02  6.72898e-01
  3.98296e-01 -2.40670e-01  2.78483e-01
  3.56458e-01  2.13562e-02  6.74989e-01
  4.61948e-01 -1.05116e-01  6.60210e-01
 -3.60571e-01  2.72004e-01  6.20572e-01
  1.45003e-01  5.25055e-02  6.76698e-01
 -1.14178e-01  2.05551e-01 -1.00721e+00
  3.51388e-01 -3.13034e-01  5.51491e-01
 -2.44869e-01  4.38328e-01  6.50378e-01
 -8.36138e-02 -4.50685e-01  5.86379e-01
  2.97827e-01 -6.01158e-02 -3.91140e-01
 -2.52042e-01 -1.75434e-01 -1.42430e-01
 -1.07076e-01 -2.74821e-01 -9.98546e-01
  4.45157e-01 -1.21421e-01  6.23484e-01
 -3.69769e-02 -2.95043e-01 -5.61124e-01
 -2.43625e-01 -1.81703e-01  1.25357e-01
 -8.65296e-02 -2.11146e-01  6.73790e-01
  1.46362e-01 -1.20572e-01  6.64681e-01
 -2.50598e-01 -1.80798e-01 -4.30583e-01
  1.25038e-01 -3.46451e-01  6.70887e-01
  1.81184e-01  2.47733e-01 -7.01393e-01
  2.79768e-01  1.10709e-01 -8.25506e-01
 -2.89797e-01 -1.08556e-01  2.26921e-01
  4.55962e-01  1.29968e-01  5.36706e-01
 -3.00563e-01 -1.29184e-02  3.21421e-02
 -2.52503e-01 -1.68779e-01 -3.56224e-01
 -1.26562e-01 -2.74186e-01  2.13255e-01
 -1.40282e-01  1.28569e-01  6.72763e-01
  2.99312e-01  7.59186e-02 -9.83589e-01
 -1.54275e-03  3.86906e-01  2.56751e-01
 -2.64941e-02  2.95287e-01  2.41858e-01
  2.36732e-01 -1.98341e-01  6.80644e-01
 -9.95290e-02 -1.29954e-01 -9.99099e-01
 -2.46566e-01 -1.73163e-01 -5.51021e-01
 -3.14310e-01  3.73920e-01  2.70830e-01
 -2.92101e-01  2.76224e-02 -1.59285e-01
  3.08343e-01  4.12700e-02 -1.86723e-01
 -2.15494e-01 -4.57227e-01  4.12540e-01
  2.43546e-01 -1.77451e-01 -4.03879e-01
  8.89143e-02 -2.94691e-01 -7.75637e-02
 -2.48027e-01  6.28039e-02 -9.94544e-01
  1.98947e-01 -2.39189e-01 -3.84581e-01
  1.57191e-02  4.49471e-01  6.69615e-01
 -2.53305e-01  3.89605e-02  6.78590e-01
  1.96051e-01 -1.86342e-01 -1.00839e+00
 -3.96383e-01  2.03750e-01  6.29735e-01
  2.02602e-01  2.34916e-01  1.85742e-01
 -8.56378e-02 -3.39659e-01  2.53737e-01
  4.06120e-02  2.93081e-01  2.50619e-01
 -4.50737e-01  1.15643e-01  3.62102e-01
 -1.13255e-01  3.85846e-01  2.46069e-01
 -2.17752e-01  2.08158e-01 -5.42661e-01
  1.89326e-01  2.45225e-01 -3.30007e-01
  1.89792e-01 -2.26929e-01 -7.01053e-01
  4.74024e-01  1.27577e-02  6.71548e-01
  1.88703e-01 -2.34279e-01 -6.42641e-01
  4.89906e-01 -3.05526e-02  6.53629e-01
  2.79952e-01  4.03229e-01  6.42190e-01
 -2.19557e-01 -2.21990e-01 -7.88313e-01
  2.84481e-01  2.04797e-02 -9.99986e-01
 -2.59553e-01  2.53845e-01  6.74368e-01
 -1.27632e-01 -4.22225e-01  2.48292e-01
 -1.37718e-01  2.70296e-01 -1.94518e-01
 -2.79539e-01 -1.10223e-01 -1.95198e-01
  3.85529e-02 -2.98705e-01 -9.78653e-01
 -3.36204e-01  3.22491e-01  6.29713e-01
  3.12870e-01 -3.87817e-01  5.41409e-01
  3.13118e-01 -2.48265e-01  6.75364e-01
 -1.35649e-01 -4.54236e-01  4.31149e-01
 -2.98204e-01 -8.28067e-02 -9.66653e-01
 -4.51107e-01  1.20716e-01  3.35363e-01
 -2.06307e-01 -2.25024e-01 -5.52424e-01
 -4.88605e-01  6.36427e-02  4.29456e-01
  2.86656e-01  7.20383e-02 -8.77801e-01
  3.03406e-01  7.49548e-02 -6.44737e-01
 -4.34290e-01 -1.34031e-01  6.68421e-01
 -1.56087e-01 -2.51894e-01 -6.00179e-02
  2.98839e-01  8.52468e-02 -9.75888e-01
  6.00180e-02 -3.01174e-01 -2.89731e-01
 -2.42168e-01 -4.56361e-01  4.76503e-01
  1.22847e-01 -2.70461e-01 -6.90449e-01
 -2.17224e-01 -4.52675e-01  2.90186e-01
  2.14219e-01  2.09701e-01 -8.57563e-01
 -3.47672e-01  3.10961e-01  6.30311e-01
 -1.52023e-01 -4.61975e-01  4.86563e-01
  2.97174e-01 -9.25047e-02 -9.21466e-01
 -9.82122e-02 -2.02263e-01  6.64677e-01
  3.10259e-01  3.37909e-04  2.49645e-01
 -1.40799e-01 -4.35062e-01  6.70395e-01
 -1.28783e-01 -2.69981e-01 -8.03619e-01
  2.77818e-01  4.34309e-01  2.85442e-01
 -2.05561e-01  2.16021e-01 -4.55915e-01
  3.48115e-01  2.98994e-01  3.47312e-01
 -7.21923e-02 -3.75486e-01  2.54556e-01
  2.85098e-01  1.19057e-01 -1.32109e-01
  1.28908e-01  4.60664e-01  5.14201e-01
 -9.88369e-03 -3.01541e-01 -3.69574e-01
 -2.89204e-01  4.47243e-02 -5.67590e-01
 -2.22998e-01 -4.63900e-01  3.60697e-01
  2.77077e-01  1.37313e-01 -8.51926e-01
 -2.47473e-01 -4.45689e-01  4.56467e-01
 -2.79192e-01  1.18242e-01 -8.19598e-01
  1.99737e-02  9.81116e-02  6.78779e-01
 -7.73171e-02 -2.86623e-01 -2.70264e-01
 -6.05232e-02 -1.45010e-01  6.73462e-01
 -1.63552e-01 -1.28136e-02  6.80982e-01
 -1.88513e-01 -2.76370e-01  6.73635e-01
 -1.50867e-01 -4.63624e-01  4.03986e-01
 -4.00870e-01  2.11632e-01  3.75217e-01
 -3.00623e-01  2.84301e-02 -7.89678e-01
  5.09189e-02 -2.93238e-01  8.36869e-02
  4.86835e-01 -8.17276e-02  3.18396e-01
  9.77742e-02 -2.87080e-01 -6.20808e-02
 -3.00458e-01  3.82512e-02 -3.60897e-01
 -2.62806e-01  1.63044e-01 -4.34255e-01
  2.44622e-02  3.69149e-01  6.64000e-01
 -1.35792e-01  2.75955e-01 -7.77697e-01
  4.31530e-01  1.74188e-01  6.14132e-01
  1.11616e-02  3.04202e-01  9.35230e-02
  9.00396e-02 -4.23392e-01  2.54621e-01
 -5.06039e-01  3.49532e-02  4.50888e-01
  7.79907e-02 -3.98388e-01  6.65127e-01
 -2.94736e-01 -8.78187e-02  1.21634e-01
  1.73780e-01 -2.46077e-01 -7.33630e-01
  3.19494e-01  3.68660e-01  5.04795e-01
 -1.53070e-01 -2.61091e-01 -5.49784e-01
 -3.00799e-01  6.58632e-02 -1.96884e-01
 -2.29439e-01  1.84136e-01  1.14247e-01
  2.00648e-01 -4.28956e-01  6.68236e-01
  3.27852e-01 -1.42688e-01  6.69812e-01
  2.77667e-01  1.17405e-01 -3.42419e-01
 -2.50062e-01  1.52578e-01 -9.09055e-01
  2.91319e-01  3.92373e-01  6.41765e-01
  1.09091e-01 -2.87323e-01 -6.15556e-01
  2.65937e-01 -1.42935e-01 -6.49838e-01
 -2.79167e-01 -8.82223e-02  1.43497e-01
 -8.56801e-02  2.82062e-01 -7.38526e-01
  2.37332e-01 -4.53254e-01  6.20870e-01
 -2.59771e-01 -1.33956e-01  1.87338e-01
 -3.69409e-01 -2.05971e-01  6.67115e-01
 -3.02192e-01 -5.81243e-02 -6.77238e-01
  4.07700e-02 -6.92505e-03 -9.93238e-01
 -3.86665e-02 -2.98366e-01  2.19836e-01
  1.63036e-01  2.45601e-01 -9.69574e-01
 -2.65191e-01  1.30368e-01 -8.56206e-01
  1.10848e-01 -4.59360e-01  3.42571e-01
  1.24847e-01 -2.91097e-01  6.82785e-01
  1.41576e-01 -2.61871e-01  2.07546e-01
  1.25489e-01 -4.04728e-01  6.83382e-01
 -2.58274e-01 -4.45921e-01  4.07435e-01
  1.51009e-01 -2.63683e-01 -6.63274e-01
  2.53884e-01  1.78011e-01 -2.43075e-01
  4.85627e-01  6.68319e-02  4.50051e-01
 -3.89532e-01 -2.44432e-01  4.67536e-01
 -1.63695e-01 -2.48669e-01 -4.10819e-01
 -1.16958e-01 -2.75515e-01 -6.18336e-01
 -2.58191e-01 -1.46688e-01 -6.85159e-01
 -3.31350e-01 -3.14980e-01  4.75401e-01
 -2.23164e-01  2.11187e-01 -3.96433e-01
 -2.87650e-01 -1.02304e-01 -7.55991e-01
 -9.50097e-02  2.78411e-01 -6.35699e-02
  4.46372e-01 -1.26422e-01  4.47700e-01
  4.58112e-02  4.57055e-01  2.79189e-01
  2.93708e-01 -2.98689e-02  1.05804e-01
  5.55289e-02  1.18375e-01  6.67255e-01
  5.50219e-02  2.97892e-01 -6.31318e-01
  4.87816e-01 -6.30877e-02  4.40164e-01
  1.72312e-01 -2.44144e-01 -3.96859e-01
  1.26572e-01 -2.66614e-01  7.88971e-02
 -2.72662e-01 -4.44615e-01  6.31931e-01
  6.37972e-02 -2.89725e-01 -3.43064e-01
 -2.97192e-01  5.91232e-03  1.43844e-01
 -1.42206e-01  2.71307e-01 -5.79512e-02
  3.26415e-02  3.63097e-01  2.63870e-01
  1.04010e-01  2.38116e-01 -9.97493e-01
 -2.54925e-01  1.68611e-01 -3.73116e-02
  2.80851e-01 -3.71368e-01  2.59234e-01
 -1.95069e-01 -2.36650e-01 -1.99782e-01
 -5.19366e-02 -4.57105e-01  4.38321e-01
 -2.15726e-01  2.19933e-01 -2.11028e-01
  1.27003e-02 -1.72982e-01 -9.99069e-01
 -2.43078e-01  1.87568e-01 -9.22659e-01
  4.05056e-01  2.04873e-01  2.52430e-01
 -5.59574e-02  2.98374e-01  6.73706e-01
 -2.96001e-01 -1.17564e-02 -7.68039e-01
  4.30079e-02 -3.09108e-01 -5.45700e-01
 -2.94762e-01 -1.00545e-01  2.74238e-02
 -2.27484e-01 -9.39972e-02  6.69336e-01
  2.37009e-01  1.11594e-02  6.75412e-01
  2.90157e-01  3.80071e-01  2.60442e-01
  9.06502e-02 -2.88089e-01 -1.66518e-01
 -8.47181e-02  3.05815e-01  6.66108e-01
  1.78059e-01 -2.40963e-01 -5.87920e-01
  2.12458e-01  2.08952e-01 -2.85685e-01
  3.68165e-02  3.65277e-01  6.68613e-01
 -2.88731e-01 -4.31426e-02  1.91345e-01
 -7.17843e-02 -2.96298e-01  1.41899e-01
 -4.28388e-01 -1.60634e-02  2.64063e-01
  4.01701e-02  4.48628e-01  4.89758e-01
 -2.50721e-01  1.71477e-01 -4.76794e-01
 -5.20527e-02  2.95826e-01 -2.24097e-01
  2.96366e-01 -4.65053e-02 -1.64282e-01
  5.07307e-02 -3.06498e-01 -2.11946e-03
 -1.50726e-01 -2.19456e-01 -1.00573e+00
  2.91840e-01  1.95175e-01  6.68823e-01
 -1.37087e-01  2.70815e-01 -5.70224e-01
  1.29057e-01  4.53862e-01  4.43214e-01
  2.93208e-01  3.81030e-01  4.53347e-01
 -7.95588e-02  2.99239e-01 -7.70200e-01
 -2.85404e-01  9.66487e-02 -1.13605e-01
  5.10049e-01 -4.24327e-02  2.80534e-01
 -6.89132e-02 -2.94712e-01 -2.43329e-01
 -2.69465e-01 -1.37870e-01  3.83686e-02
  2.73410e-01  1.28255e-01 -5.12897e-01
 -5.00018e-01 -4.61137e-02  5.98005e-01
  3.44071e-02 -2.35652e-01  6.71277e-01
  1.80767e-01 -2.52498e-01 -7.71447e-01
 -4.13525e-01 -1.72912e-01  3.63515e-01
  4.84206e-01 -9.03685e-02  4.01326e-01
  1.32670e-01  2.61693e-01  8.40823e-02
 -3.82617e-01 -2.23671e-01  6.79493e-01
  2.79447e-01 -1.18131e-01 -9.45714e-01
 -2.87829e-01  6.18190e-02 -7.81200e-01
 -2.84276e-01 -6.58434e-02 -4.89759e-01
 -2.03363e-01 -2.21826e-01 -3.31647e-01
 -2.98500e-01 -4.68936e-02  1.23647e-02
 -2.64704e-01 -1.52632e-01  2.30149e-01
 -3.02802e-01  3.62113e-01  2.78375e-01
  1.30885e-01  4.76379e-02  6.80989e-01
 -2.58460e-01  4.39077e-01  2.67681e-01
 -1.09294e-01  7.13482e-03 -9.95132e-01
  2.30051e-01 -3.37331e-01  6.67108e-01
 -3.64499e-01  1.59937e-01  6.72146e-01
  2.79546e-01  1.13599e-01 -9.56970e-01
 -2.09524e-01 -2.10597e-01  2.05036e-01
 -1.23115e-01  2.68742e-01 -3.42559e-01
 -2.96168e-01 -8.25054e-02  2.48149e-01
  5.47455e-02 -3.02455e-01 -6.92768e-01
 -2.75255e-01  2.86875e-03  6.83571e-01
  1.91710e-01  2.27907e-01 -9.66970e-01
  3.08926e-01 -9.40013e-03 -5.80109e-01
  2.39929e-01  1.97543e-01 -9.77083e-01
  2.73711e-01  1.31772e-01 -1.30139e-01
 -2.71148e-01 -1.35620e-01 -4.38054e-01
  3.43162e-01  3.04094e-01  6.70681e-01
  5.03126e-02 -4.57026e-01  6.26330e-01
  2.26087e-01  4.18359e-01  2.62219e-01
 -2.31189e-01 -1.96814e-01 -1.63891e-01
  4.29011e-01 -1.67586e-01  2.96398e-01
 -3.05197e-01  3.69829e-01  2.89695e-01
  1.11527e-01 -5.49421e-02  6.65087e-01
  4.75606e-01  7.92353e-02  4.38129e-01
 -1.92903e-01  2.39285e-01  1.24045e-01
 -1.66844e-01  1.59489e-01 -9.96268e-01
  1.88829e-01 -3.32179e-01  6.79380e-01
 -2.42907e-01 -7.99322e-02 -9.94227e-01
  3.55917e-01 -2.88725e-01  5.46683e-01
 -1.51304e-01 -2.54511e-01 -6.13102e-01
 -1.68583e-01 -2.62474e-01 -8.09133e-01
 -1.45804e-01 -2.65925e-01 -6.62786e-01
 -7.50950e-02  4.59610e-01  5.59874e-01
  2.98665e-01 -7.57772e-02 -6.13058e-01
  3.00497e-01  6.37268e-02  3.69547e-02
 -2.68024e-02  4.42176e-01  3.03234e-01
  2.94419e-01 -4.81048e-02 -7.19209e-01
  4.60883e-01  1.01331e-01  2.95515e-01
  5.24297e-01  7.52350e-03  5.54238e-01
 -1.81776e-02  2.49531e-01 -9.93231e-01
  3.05158e-01 -3.82849e-01  2.87639e-01
  2.65020e-01 -4.39661e-01  5.55722e-01
 -1.10947e-01 -4.48202e-01  2.79285e-01
  1.43687e-01  2.70575e-01 -2.39088e-01
 -7.96282e-02  4.42421e-01  2.80970e-01
 -4.15658e-01 -1.79868e-01  3.67127e-01
  3.47163e-02  2.99062e-01 -4.49689e-01
 -2.96304e-01 -4.52614e-02 -4.94568e-01
 -4.97057e-01 -2.77645e-02  6.56118e-01
 -1.92360e-01  2.23459e-01 -7.60740e-01
 -2.41760e-02 -3.58338e-01  2.63730e-01
 -1.73454e-01  2.44157e-01 -3.78953e-01
 -3.01392e-01 -3.12756e-01  2.45385e-01
  2.33092e-01 -4.59789e-01  4.07760e-01
  1.76093e-01 -5.35026e-02 -9.91108e-01
  2.36033e-01  4.60211e-01  3.76140e-01
 -2.80993e-01  4.32970e-01  2.78563e-01
 -2.93899e-01 -8.85397e-03 -4.31980e-01
 -5.15094e-02 -3.48674e-01  2.48120e-01
  1.17284e-02 -6.65069e-03 -9.93135e-01
  3.73744e-01 -2.68031e-01  6.50729e-01
 -1.81127e-01 -2.54476e-01  2.49463e-01
 -2.55266e-01  4.60526e-01  3.37078e-01
 -1.20884e-01  3.04791e-01  6.68327e-01
 -2.74404e-01 -1.44256e-01 -2.76678e-01
 -4.05059e-01  2.08424e-01  6.25063e-01
  7.32044e-02 -2.90658e-01 -2.83500e-01
 -2.62147e-01  1.48400e-01 -7.28020e-01
  9.89915e-02 -1.67427e-01  6.74309e-01
  2.58655e-01  1.55421e-01  6.48247e-02
  3.21240e-02  4.34384e-02 -1.00815e+00
 -2.73854e-01 -1.13004e-01 -9.89232e-01
  4.57833e-01 -1.11422e-01  6.30005e-01
  1.32167e-01 -4.48647e-01  6.59017e-01
  3.85846e-01 -2.49852e-01  4.89433e-01
  3.08029e-01 -5.25429e-03 -3.01686e-02
  2.75369e-01 -1.30005e-01  9.79708e-02
 -1.10693e-01 -2.72927e-01 -3.93840e-01
 -2.83983e-02  6.30642e-02 -1.00399e+00
 -4.13358e-01 -2.06254e-01  6.33227e-01
 -3.65408e-01 -1.49263e-01  2.50092e-01
  2.85899e-01  1.00884e-01 -3.21424e-01
  3.73089e-01  2.72447e-01  6.48356e-01
  1.18141e-02  4.45787e-01  6.71972e-01
  3.09304e-01 -2.89572e-02  1.46633e-01
 -2.11425e-01  2.00998e-01 -4.08892e-01
  2.44130e-01  3.78743e-01  6.70888e-01
 -4.16528e-01  7.35751e-02  6.75311e-01
  1.10154e-01  2.83639e-01 -3.21347e-01
  9.95152e-02  2.73162e-01 -8.98549e-01
  3.22889e-01  7.69440e-03  6.64838e-01
  1.30640e-01  4.51727e-01  4.58091e-01
  1.13325e-01 -3.69430e-01  6.75867e-01
  5.52389e-02  2.33818e-01  6.65956e-01
 -3.78957e-02  2.92550e-01  7.16159e-02
  8.06274e-02  2.90956e-01 -6.14059e-01
