  0.0142284   0.451092    0.643557  
 -0.162646    0.451092    0.580416  
 -0.00754897  0.451092    0.513226  
  0.260585    0.451092    0.556852  
  0.0731408   0.451092    0.659126  
  0.189501    0.451092    0.28393   
 -0.220067    0.451092    0.28434   
 -0.16383     0.451092    0.408993  
  0.178776    0.451092    0.289789  
 -0.145253    0.451092    0.4493    
 -0.204529    0.451092    0.292773  
 -0.214926    0.451092    0.591247  
 -0.25419     0.451092    0.381693  
 -0.129927    0.451092    0.52496   
  0.089945    0.451092    0.317347  
  0.21401     0.451092    0.375477  
 -0.143705    0.451092    0.469785  
 -0.178834    0.451092    0.285287  
  0.201384    0.451092    0.588707  
  0.178936    0.451092    0.401945  
  0.195739    0.451092    0.456435  
  0.254092    0.451092    0.325081  
  0.00130053  0.451092    0.56155   
  0.0992765   0.451092    0.359537  
  0.231083    0.451092    0.556388  
  0.0448973   0.451092    0.591077  
  0.149343    0.451092    0.522905  
  0.0769424   0.451092    0.328421  
  0.0156356   0.451092    0.612539  
  0.223937    0.451092    0.3907    
  0.218615    0.451092    0.286714  
  0.0375338   0.451092    0.50614   
 -0.181205    0.451092    0.43884   
  0.01703     0.451092    0.36135   
 -0.233462    0.451092    0.450658  
 -0.174436    0.451092    0.593157  
  0.0979117   0.451092    0.391374  
 -0.0200899   0.451092    0.669433  
  0.0348955   0.451092    0.586161  
 -0.0199833   0.451092    0.505041  
 -0.244594    0.451092    0.416346  
  0.144977    0.451092    0.38065   
 -0.118764    0.451092    0.304804  
 -0.0465734   0.451092    0.263423  
  0.14997     0.451092    0.400134  
  0.235748    0.451092    0.468393  
  0.23011     0.451092    0.537393  
 -0.0756183   0.451092    0.595668  
  0.00213519  0.451092    0.655627  
  0.25121     0.451092    0.510549  
  0.0769604   0.451092    0.597067  
 -0.136264    0.451092    0.281643  
 -0.0261727   0.451092    0.619383  
 -0.0143348   0.451092    0.538114  
  0.0345411   0.451092    0.601077  
  0.0339755   0.451092    0.521789  
 -0.160572    0.451092    0.455907  
  0.154893    0.451092    0.402463  
 -0.151823    0.451092    0.522708  
 -0.151718    0.451092    0.604192  
  0.260883    0.451092    0.403841  
 -0.229312    0.451092    0.587966  
 -0.0250535   0.451092    0.397468  
  0.0399742   0.451092    0.585798  
 5.15962e-01  1.31888e-02  5.73850e-01
  3.63475e-01  2.77304e-01  4.29112e-01
  3.35830e-01  3.25188e-01  5.89659e-01
  4.13959e-01  1.89864e-01  3.78294e-01
  2.82073e-01  4.18296e-01  4.66260e-01
  4.04444e-01  2.06345e-01  6.10036e-01
  5.00394e-01  4.01536e-02  4.85572e-01
  2.71644e-01  4.36360e-01  5.44487e-01
  3.33419e-01  3.29362e-01  5.84681e-01
  2.82942e-01  4.16792e-01  3.71883e-01
  4.05878e-01  2.03860e-01  4.07825e-01
  3.11381e-01  3.67533e-01  5.20928e-01
  4.41024e-01  1.42986e-01  5.35788e-01
  4.70411e-01  9.20859e-02  6.02536e-01
  4.74549e-01  8.49181e-02  2.93498e-01
  5.14942e-01  1.49552e-02  5.90140e-01
  4.20933e-01  1.77783e-01  5.17789e-01
  4.95807e-01  4.80994e-02  4.68415e-01
  3.13315e-01  3.64184e-01  6.47311e-01
  4.47423e-01  1.31902e-01  4.23946e-01
  4.69151e-01  9.42687e-02  4.16544e-01
  4.90534e-01  5.72324e-02  5.55856e-01
  4.76825e-01  8.09757e-02  4.81387e-01
  4.97323e-01  4.54720e-02  3.09582e-01
  4.95081e-01  4.93556e-02  5.05012e-01
  2.94670e-01  3.96478e-01  5.54808e-01
  3.68015e-01  2.69441e-01  5.63381e-01
  3.93281e-01  2.25678e-01  5.39562e-01
  4.20898e-01  1.77844e-01  2.73488e-01
  3.61947e-01  2.79950e-01  6.20273e-01
  4.51943e-01  1.24073e-01  5.81431e-01
  3.43319e-01  3.12216e-01  5.10210e-01
  4.70352e-01  9.21874e-02  5.31711e-01
  3.76160e-01  2.55333e-01  3.01669e-01
  2.85687e-01  4.12038e-01  2.70676e-01
  4.90431e-01  5.74101e-02  3.12668e-01
  4.36646e-01  1.50569e-01  6.44844e-01
  4.28569e-01  1.64558e-01  5.44849e-01
  5.08713e-01  2.57450e-02  2.94860e-01
  2.71905e-01  4.35908e-01  3.79425e-01
  3.40257e-01  3.17519e-01  5.72587e-01
  4.53555e-01  1.21282e-01  5.62352e-01
  3.81789e-01  2.45584e-01  3.17860e-01
  3.16741e-01  3.58250e-01  4.30016e-01
  5.18021e-01  9.62355e-03  3.60848e-01
  4.15571e-01  1.87072e-01  3.18047e-01
  4.40193e-01  1.44425e-01  6.06811e-01
  3.64292e-01  2.75889e-01  6.02789e-01
  3.29885e-01  3.35484e-01  6.53269e-01
  3.34383e-01  3.27693e-01  5.20768e-01
  4.48476e-01  1.30079e-01  4.79877e-01
  4.99914e-01  4.09851e-02  3.40243e-01
  3.56550e-01  2.89299e-01  3.18313e-01
  4.99920e-01  4.09745e-02  6.22300e-01
  4.22549e-01  1.74985e-01  6.44912e-01
  3.02190e-01  3.83453e-01  5.24154e-01
  3.25277e-01  3.43465e-01  5.69485e-01
  2.88969e-01  4.06353e-01  3.78439e-01
  4.66055e-01  9.96314e-02  5.77706e-01
  3.09177e-01  3.71350e-01  5.06985e-01
  3.15993e-01  3.59545e-01  3.75049e-01
  4.24012e-01  1.72452e-01  3.21260e-01
  3.78880e-01  2.50623e-01  4.50499e-01
  4.02149e-01  2.10320e-01  5.78286e-01
  3.22244e-01  3.48718e-01  4.78483e-01
  4.40578e-01  1.43757e-01  4.64098e-01
  2.98013e-01  3.90688e-01  6.22989e-01
  2.81593e-01  4.19129e-01  5.70595e-01
  3.06125e-01  3.76637e-01  3.50408e-01
  4.99680e-01  4.13903e-02  6.45550e-01
  2.91214e-01  4.02464e-01  3.86915e-01
  3.75684e-01  2.56159e-01  5.13537e-01
  4.20804e-01  1.78007e-01  3.62090e-01
  5.15996e-01  1.31309e-02  4.31752e-01
  4.94071e-01  5.11052e-02  4.45406e-01
  2.65616e-01  4.46801e-01  4.55953e-01
  3.14294e-01  3.62489e-01  6.15629e-01
  3.21158e-01  3.50599e-01  3.24500e-01
  4.45640e-01  1.34991e-01  4.73514e-01
  4.71576e-01  9.00682e-02  5.56930e-01
  3.26234e-01  3.41808e-01  5.52499e-01
  3.03356e-01  3.81433e-01  6.52246e-01
  2.91774e-01  4.01493e-01  5.96889e-01
  2.95505e-01  3.95032e-01  5.01149e-01
  4.78089e-01  7.87866e-02  5.59481e-01
  3.60718e-01  2.82080e-01  5.13675e-01
  4.22652e-01  1.74807e-01  4.41039e-01
  2.81718e-01  4.18911e-01  3.15183e-01
  2.97929e-01  3.90834e-01  3.79569e-01
  3.20022e-01  3.52567e-01  4.00858e-01
  2.89584e-01  4.05287e-01  5.73752e-01
  3.46195e-01  3.07234e-01  4.84875e-01
  2.92682e-01  3.99921e-01  4.61581e-01
  3.21006e-01  3.50864e-01  5.20473e-01
  3.78343e-01  2.51553e-01  3.65624e-01
  4.74278e-01  8.53875e-02  4.83381e-01
  4.38901e-01  1.46662e-01  5.86923e-01
  4.26128e-01  1.68787e-01  3.57914e-01
  4.30135e-01  1.61846e-01  5.20107e-01
  2.85394e-01  4.12544e-01  4.88060e-01
  3.08584e-01  3.72379e-01  4.55990e-01
  4.71369e-01  9.04258e-02  3.17643e-01
  4.06585e-01  2.02637e-01  6.24551e-01
  4.66430e-01  9.89805e-02  3.13196e-01
  5.06993e-01  2.87237e-02  5.07881e-01
  2.73140e-01  4.33770e-01  2.87994e-01
  2.84408e-01  4.14252e-01  2.57366e-01
  4.86972e-01  6.34013e-02  5.32030e-01
  2.76964e-01  4.27146e-01  6.18311e-01
  3.08511e-01  3.72504e-01  6.09576e-01
  4.01241e-01  2.11892e-01  4.58935e-01
  3.20088e-01  3.52454e-01  5.15454e-01
  4.12895e-01  1.91707e-01  6.09932e-01
  2.89002e-01  4.06296e-01  4.94413e-01
  4.04411e-01  2.06402e-01  6.40494e-01
  3.24795e-01  3.44300e-01  2.79909e-01
  2.89289e-01  4.05799e-01  2.56231e-01
  4.50231e-01  1.27039e-01  6.29531e-01
  4.64002e-01  1.03187e-01  6.42304e-01
  4.58506e-01  1.12705e-01  4.90661e-01
  2.84357e-01  4.14341e-01  4.77762e-01
  4.34775e-01  1.53808e-01  3.77429e-01
  3.00138e-01  3.87007e-01  4.13753e-01
  5.19971e-01  6.24484e-03  5.23655e-01
  3.34832e-01  3.26915e-01  6.51920e-01
  3.89553e-01  2.32136e-01  5.33248e-01
  3.22366e-01  3.48508e-01  3.67837e-01
  4.34965e-01  1.53479e-01  3.99876e-01
  4.12996e-01  1.91532e-01  4.28835e-01
  3.94562e-01  2.23460e-01  4.44469e-01
  2.88728e-01  4.06771e-01  4.80844e-01
  2.88567e-01  4.07049e-01  5.48851e-01
  2.93532e-01  3.98449e-01  5.05943e-01
  3.62729e-01  2.78597e-01  5.85603e-01
  4.30218e-01  1.61702e-01  4.53027e-01
  2.97271e-01  3.91974e-01  6.01932e-01
  4.69075e-01  9.43999e-02  6.51967e-01
  4.79708e-01  7.59826e-02  3.32066e-01
  4.16318e-01  1.85778e-01  3.34825e-01
  4.55431e-01  1.18032e-01  4.44633e-01
  4.22678e-01  1.74762e-01  4.74084e-01
  4.54399e-01  1.19819e-01  4.06567e-01
  5.24015e-01 -7.58651e-04  5.22687e-01
  3.36255e-01  3.24450e-01  5.54790e-01
  2.76209e-01  4.28454e-01  5.27212e-01
  4.45991e-01  1.34383e-01  5.18000e-01
  2.76684e-01  4.27630e-01  2.90983e-01
  5.15609e-01  1.38012e-02  6.34479e-01
  2.81020e-01  4.20121e-01  4.04882e-01
  5.03387e-01  3.49690e-02  6.24085e-01
  3.22573e-01  3.48149e-01  4.79390e-01
  4.79994e-01  7.54871e-02  3.85231e-01
  2.93912e-01  3.97792e-01  2.62696e-01
  3.33167e-01  3.29800e-01  3.29212e-01
  4.22657e-01  1.74799e-01  6.27783e-01
  3.83057e-01  2.43387e-01  5.70577e-01
  3.88348e-01  2.34223e-01  5.46662e-01
  2.74598e-01  4.31244e-01  4.74489e-01
  4.01602e-01  2.11267e-01  5.97173e-01
  4.11279e-01  1.94506e-01  5.08325e-01
  3.13874e-01  3.63216e-01  3.09462e-01
  4.55467e-01  1.17970e-01  5.91876e-01
  2.98849e-01  3.89240e-01  2.84992e-01
  3.72351e-01  2.61930e-01  3.38690e-01
  3.76187e-01  2.55286e-01  6.46325e-01
  4.41534e-01  1.42103e-01  5.75018e-01
  4.44654e-01  1.36698e-01  5.46606e-01
  4.53037e-01  1.22178e-01  3.91210e-01
  4.49169e-01  1.28878e-01  3.26003e-01
  4.80627e-01  7.43905e-02  4.90811e-01
  2.99281e-01  3.88492e-01  6.41779e-01
  3.58425e-01  2.86051e-01  5.84865e-01
  5.13092e-01  1.81607e-02  4.50476e-01
  5.18345e-01  9.06171e-03  5.51582e-01
  3.97505e-01  2.18363e-01  5.50408e-01
  3.64282e-01  2.75906e-01  5.44568e-01
  3.83849e-01  2.42016e-01  6.38259e-01
  4.82489e-01  7.11653e-02  3.82053e-01
  5.05277e-01  3.16964e-02  4.94111e-01
  4.13737e-01  1.90249e-01  5.79775e-01
  4.43952e-01  1.37915e-01  5.66145e-01
  3.38660e-01  3.20286e-01  6.62268e-01
  3.27455e-01  3.39692e-01  4.68885e-01
  5.09592e-01  2.42222e-02  6.06777e-01
  3.06476e-01  3.76030e-01  3.08382e-01
  5.18315e-01  9.11440e-03  5.01934e-01
  4.02955e-01  2.08922e-01  2.75910e-01
  4.40220e-01  1.44377e-01  2.82532e-01
  3.20664e-01  3.51455e-01  4.18660e-01
  4.47601e-01  1.31594e-01  2.89419e-01
  4.32876e-01  1.57098e-01  5.64130e-01
  4.13548e-01  1.90575e-01  3.67890e-01
  3.57588e-01  2.87501e-01  6.11126e-01
  2.95883e-01  3.94378e-01  4.26396e-01
  4.63448e-01  1.04145e-01  4.34215e-01
  4.81739e-01  7.24649e-02  5.60062e-01
  3.77750e-01  2.52579e-01  3.95196e-01
  3.79511e-01  2.49530e-01  4.52045e-01
  3.63643e-01  2.77014e-01  2.94629e-01
  3.60675e-01  2.82154e-01  5.97434e-01
  3.91330e-01  2.29058e-01  4.81384e-01
  4.55379e-01  1.18122e-01  3.68058e-01
  3.78953e-01  2.50495e-01  3.08309e-01
  2.92649e-01  3.99979e-01  3.71575e-01
  4.64623e-01  1.02110e-01  6.13656e-01
  3.51659e-01  2.97771e-01  3.34610e-01
  5.22680e-01  1.55345e-03  4.02437e-01
  2.65099e-01  4.47697e-01  5.38831e-01
  4.72194e-01  8.89979e-02  5.32608e-01
  4.61763e-01  1.07064e-01  4.93565e-01
  5.23947e-01 -6.41800e-04  3.70244e-01
  4.82600e-01  7.09735e-02  4.77651e-01
  3.59240e-01  2.84640e-01  3.97281e-01
  3.35281e-01  3.26138e-01  5.70448e-01
  5.21974e-01  2.77621e-03  3.16163e-01
  5.00821e-01  3.94147e-02  3.07866e-01
  4.39773e-01  1.45152e-01  5.81521e-01
  3.60240e-01  2.82907e-01  3.16255e-01
  4.48627e-01  1.29817e-01  3.56671e-01
  3.07101e-01  3.74947e-01  5.74158e-01
  4.25108e-01  1.70554e-01  4.50228e-01
  3.61986e-01  2.79883e-01  3.31455e-01
  4.08159e-01  1.99910e-01  5.21758e-01
  4.12777e-01  1.91911e-01  2.62859e-01
  5.10245e-01  2.30908e-02  5.32806e-01
  3.12484e-01  3.65623e-01  3.72028e-01
  3.57029e-01  2.88470e-01  6.24822e-01
  3.05050e-01  3.78499e-01  3.97272e-01
  2.83900e-01  4.15132e-01  3.99807e-01
  3.56679e-01  2.89076e-01  5.66868e-01
  4.55542e-01  1.17841e-01  3.28502e-01
  4.77040e-01  8.06042e-02  5.70039e-01
  2.70030e-01  4.39155e-01  2.70002e-01
  4.64074e-01  1.03062e-01  3.26950e-01
  4.67553e-01  9.70357e-02  5.06010e-01
  2.80565e-01  4.20908e-01  2.95757e-01
  5.09061e-01  2.51419e-02  4.56869e-01
  4.47308e-01  1.32102e-01  5.57117e-01
  3.80298e-01  2.48167e-01  6.50650e-01
  3.05768e-01  3.77256e-01  4.15602e-01
  3.68031e-01  2.69413e-01  3.48819e-01
  4.48270e-01  1.30435e-01  6.25109e-01
  2.84625e-01  4.13877e-01  4.95565e-01
  2.94441e-01  3.96875e-01  5.06622e-01
  3.71350e-01  2.63665e-01  3.78939e-01
  2.79902e-01  4.22057e-01  5.96343e-01
  2.72500e-01  4.34877e-01  2.57215e-01
  4.98736e-01  4.30255e-02  3.52714e-01
  3.79949e-01  2.48771e-01  3.18199e-01
  3.39609e-01  3.18641e-01  6.00701e-01
  3.41520e-01  3.15332e-01  4.98028e-01
  3.75694e-01  2.56140e-01  5.15925e-01
  5.00223e-01  4.04503e-02  4.78285e-01
  3.04055e-01  3.80224e-01  4.76701e-01
  3.33446e-01  3.29317e-01  5.29616e-01
  3.50444e-01  2.99875e-01  2.65039e-01
  4.70513e-01  9.19092e-02  4.89101e-01
  4.94033e-01  5.11710e-02  4.06148e-01
  3.65500e-01  2.73797e-01  3.50767e-01
  5.17325e-01  1.08284e-02  3.62222e-01
  3.92267e-01  2.27435e-01  2.92470e-01
  3.48151e-01  3.03847e-01  3.44630e-01
  3.04803e-01  3.78928e-01  3.77555e-01
  4.76622e-01  8.13272e-02  3.78237e-01
  3.87676e-01  2.35387e-01  4.32347e-01
  4.83674e-01  6.91132e-02  4.26356e-01
  4.66516e-01  9.88328e-02  3.27619e-01
  3.44420e-01  3.10309e-01  4.06317e-01
  2.91500e-01  4.01970e-01  4.39732e-01
  3.62684e-01  2.78675e-01  6.67213e-01
  2.76404e-01  4.28116e-01  3.73522e-01
  3.88414e-01  2.34108e-01  5.23088e-01
  4.68685e-01  9.50747e-02  5.17614e-01
  4.47841e-01  1.31177e-01  4.16660e-01
  3.39675e-01  3.18527e-01  4.37193e-01
  3.04551e-01  3.79363e-01  4.55182e-01
  4.14238e-01  1.89380e-01  3.71019e-01
  3.15482e-01  3.60430e-01  6.27832e-01
  4.98581e-01  4.32942e-02  4.84975e-01
  3.20598e-01  3.51570e-01  4.05654e-01
  4.35684e-01  1.52234e-01  4.01119e-01
  3.03730e-01  3.80786e-01  6.50329e-01
  3.24088e-01  3.45524e-01  6.44637e-01
  4.94751e-01  4.99280e-02  6.38926e-01
  4.91274e-01  5.59492e-02  3.88596e-01
  4.57511e-01  1.14429e-01  3.16635e-01
  3.03984e-01  3.80346e-01  4.42009e-01
  5.07440e-01  2.79492e-02  6.12968e-01
  4.17025e-01  1.84552e-01  6.43694e-01
  3.74279e-01  2.58591e-01  6.51716e-01
  3.40254e-01  3.17524e-01  4.03148e-01
  3.53136e-01  2.95212e-01  4.87385e-01
  2.97759e-01  3.91129e-01  5.95724e-01
  3.66991e-01  2.71215e-01  3.20204e-01
  4.21712e-01  1.76435e-01  4.49393e-01
  2.89230e-01  4.05900e-01  6.27297e-01
  4.03804e-01  2.07452e-01  5.90555e-01
  4.98731e-01  4.30340e-02  5.67597e-01
  3.51258e-01  2.98466e-01  5.06483e-01
  2.80659e-01  4.20746e-01  3.59441e-01
  4.71557e-01  9.01013e-02  4.55609e-01
  3.11945e-01  3.66557e-01  5.22047e-01
  4.82455e-01  7.12258e-02  5.15001e-01
  3.75642e-01  2.56230e-01  4.97392e-01
  4.11901e-01  1.93427e-01  5.70443e-01
  3.08529e-01  3.72473e-01  6.11540e-01
  3.09790e-01  3.70290e-01  3.61348e-01
  4.39013e-01  1.46469e-01  5.72002e-01
  4.02423e-01  2.09844e-01  5.62133e-01
  4.08421e-01  1.99455e-01  6.33204e-01
  3.10825e-01  3.68497e-01  4.08009e-01
  3.02180e-01  3.83471e-01  5.23968e-01
  3.54349e-01  2.93111e-01  5.32798e-01
  5.18790e-01  8.29058e-03  5.73799e-01
  3.47794e-01  3.04465e-01  4.17960e-01
  4.15082e-01  1.87919e-01  3.48283e-01
  3.98659e-01  2.16365e-01  3.10595e-01
  3.52559e-01  2.96211e-01  4.20571e-01
  2.95641e-01  3.94797e-01  5.63571e-01
  5.22758e-01  1.41860e-03  3.09025e-01
  3.50586e-01  2.99629e-01  5.16965e-01
  4.88876e-01  6.01040e-02  5.35668e-01
  4.32047e-01  1.58534e-01  3.89541e-01
  4.49039e-01  1.29104e-01  4.76402e-01
  4.00010e-01  2.14024e-01  4.28996e-01
  2.81070e-01  4.20035e-01  5.34801e-01
  2.73968e-01  4.32334e-01  5.62408e-01
  3.50467e-01  2.99835e-01  5.95153e-01
  4.06107e-01  2.03464e-01  3.11510e-01
  4.14958e-01  1.88133e-01  4.59842e-01
  4.63261e-01  1.04471e-01  5.91899e-01
  3.61079e-01  2.81454e-01  6.42749e-01
  5.18514e-01  8.76913e-03  6.33323e-01
  4.60751e-01  1.08818e-01  5.49660e-01
  3.85246e-01  2.39596e-01  6.59946e-01
  4.98778e-01  4.29523e-02  5.93735e-01
  4.30974e-01  1.60394e-01  5.62640e-01
  5.10793e-01  2.21430e-02  5.70100e-01
  4.57864e-01  1.13818e-01  3.82038e-01
  4.23471e-01  1.73388e-01  5.44722e-01
  4.65277e-01  1.00978e-01  5.55130e-01
  4.83805e-01  6.88865e-02  4.49552e-01
  2.84655e-01  4.13824e-01  6.35580e-01
  4.58845e-01  1.12119e-01  3.22137e-01
  4.59633e-01  1.10754e-01  3.08164e-01
  3.26037e-01  3.42150e-01  4.57676e-01
  2.84778e-01  4.13612e-01  4.59328e-01
  2.75961e-01  4.28882e-01  6.05309e-01
  4.15377e-01  1.87407e-01  4.45988e-01
  3.61491e-01  2.80742e-01  3.22706e-01
  2.78209e-01  4.24990e-01  4.00920e-01
  4.59618e-01  1.10780e-01  4.53673e-01
  5.16509e-01  1.22411e-02  4.10556e-01
  3.22171e-01  3.48846e-01  3.00930e-01
  3.73350e-01  2.60201e-01  5.00358e-01
  4.66258e-01  9.92791e-02  5.20400e-01
  3.01865e-01  3.84016e-01  4.99858e-01
  3.89284e-01  2.32602e-01  5.52015e-01
  4.08507e-01  1.99306e-01  4.39937e-01
  4.78497e-01  7.80812e-02  5.88728e-01
  3.37132e-01  3.22932e-01  3.63614e-01
  3.92026e-01  2.27853e-01  3.04152e-01
  3.89541e-01  2.32156e-01  2.83002e-01
  4.07312e-01  2.01376e-01  5.86789e-01
  3.61855e-01  2.80110e-01  3.09023e-01
  4.75780e-01  8.27861e-02  6.41679e-01
  3.72415e-01  2.61820e-01  3.49169e-01
  4.38477e-01  1.47397e-01  2.66015e-01
  4.67182e-01  9.76790e-02  3.31366e-01
  4.29321e-01  1.63255e-01  3.92745e-01
  4.54119e-01  1.20305e-01  5.11952e-01
  4.75409e-01  8.34283e-02  6.45205e-01
  2.66118e-01  4.45931e-01  4.43903e-01
  4.57548e-01  1.14364e-01  3.68704e-01
  5.08657e-01  2.58419e-02  2.92441e-01
  3.95894e-01  2.21153e-01  3.02721e-01
  4.59949e-01  1.10206e-01  2.78183e-01
  2.65782e-01  4.46513e-01  2.92856e-01
  4.12868e-01  1.91753e-01  5.88729e-01
  5.20888e-01  4.65675e-03  4.26344e-01
  3.97781e-01  2.17885e-01  6.50993e-01
  4.24677e-01  1.71299e-01  2.93001e-01
  4.24018e-01  1.72441e-01  2.55320e-01
  3.66453e-01  2.72147e-01  4.80073e-01
  4.09921e-01  1.96858e-01  4.15726e-01
  4.65225e-01  1.01068e-01  4.47798e-01
  4.73303e-01  8.70767e-02  6.10209e-01
  3.97819e-01  2.17819e-01  6.04620e-01
  4.96721e-01  4.65147e-02  3.33954e-01
  2.80239e-01  4.21473e-01  4.66655e-01
  4.35715e-01  1.52181e-01  3.41091e-01
  2.79983e-01  4.21917e-01  3.61594e-01
  3.26757e-01  3.40903e-01  5.62792e-01
  4.17235e-01  1.84190e-01  4.14494e-01
  3.94996e-01  2.22708e-01  5.70831e-01
  3.39742e-01  3.18410e-01  6.27455e-01
  3.91557e-01  2.28664e-01  4.17598e-01
  4.77983e-01  7.89708e-02  5.24418e-01
  5.15640e-01  1.37474e-02  4.45570e-01
  5.22201e-01  2.38206e-03  5.44801e-01
  3.69118e-01  2.67531e-01  5.27338e-01
  4.49997e-01  1.27443e-01  6.65445e-01
  2.67081e-01  4.44263e-01  3.25726e-01
  4.79753e-01  7.59057e-02  3.71265e-01
  5.21294e-01  3.95452e-03  5.14036e-01
  4.96426e-01  4.70263e-02  3.49143e-01
  4.95168e-01  4.92048e-02  5.04073e-01
  3.68082e-01  2.69326e-01  5.19687e-01
  4.24181e-01  1.72159e-01  3.37260e-01
  4.55350e-01  1.18173e-01  6.25084e-01
  4.61255e-01  1.07944e-01  5.78708e-01
  4.50785e-01  1.26079e-01  2.95261e-01
  3.03352e-01  3.81441e-01  3.02468e-01
  3.81037e-01  2.46887e-01  4.84618e-01
  3.07041e-01  3.75051e-01  5.11383e-01
  4.04521e-01  2.06211e-01  4.42492e-01
  4.88893e-01  6.00737e-02  3.69037e-01
  4.50851e-01  1.25965e-01  3.21132e-01
  4.86840e-01  6.36305e-02  5.79612e-01
  4.67749e-01  9.66964e-02  3.93259e-01
  4.17990e-01  1.82882e-01  5.25599e-01
  2.94535e-01  3.96712e-01  4.07457e-01
  4.58806e-01  1.12186e-01  3.69728e-01
  3.75433e-01  2.56593e-01  3.00516e-01
  4.39022e-01  1.46453e-01  4.83573e-01
  4.50700e-01  1.26226e-01  6.12301e-01
  3.21875e-01  3.49358e-01  6.00765e-01
  4.42109e-01  1.41106e-01  3.86244e-01
  2.69867e-01  4.39438e-01  6.03546e-01
  4.14307e-01  1.89262e-01  4.89271e-01
  3.50841e-01  2.99186e-01  5.65589e-01
  3.83866e-01  2.41986e-01  3.94228e-01
  5.21715e-01  3.22386e-03  2.95844e-01
  4.66242e-01  9.93066e-02  2.69622e-01
  3.24153e-01  3.45412e-01  5.35275e-01
  2.75572e-01  4.29557e-01  3.38856e-01
  4.44855e-01  1.36351e-01  2.87967e-01
  4.82422e-01  7.12828e-02  3.02230e-01
  3.09021e-01  3.71621e-01  6.52765e-01
  4.45081e-01  1.35959e-01  2.78399e-01
  4.23803e-01  1.72813e-01  3.75804e-01
  3.01005e-01  3.85505e-01  2.67488e-01
  3.32380e-01  3.31163e-01  3.02105e-01
  4.73556e-01  8.66377e-02  3.04792e-01
  3.47145e-01  3.05589e-01  4.57534e-01
  4.97541e-01  4.50956e-02  3.68161e-01
  4.28717e-01  1.64301e-01  6.03736e-01
  5.02470e-01  3.65576e-02  6.34466e-01
  3.31026e-01  3.33508e-01  4.58563e-01
  4.92292e-01  5.41867e-02  3.99256e-01
  5.22821e-01  1.30955e-03  6.00449e-01
  2.66134e-01  4.45904e-01  2.62776e-01
  5.06208e-01  3.00841e-02  5.95104e-01
  4.61083e-01  1.08242e-01  5.04142e-01
  4.95975e-01  4.78084e-02  5.51538e-01
  3.35735e-01  3.25351e-01  6.29791e-01
  4.07037e-01  2.01852e-01  3.56159e-01
  5.19698e-01  6.71822e-03  6.24670e-01
  5.15172e-01  1.45572e-02  5.43948e-01
  4.89093e-01  5.97274e-02  3.99831e-01
  3.82393e-01  2.44537e-01  2.87324e-01
  4.59771e-01  1.10516e-01  4.81045e-01
  3.95413e-01  2.21986e-01  4.67712e-01
  3.30664e-01  3.34135e-01  5.39917e-01
  3.12553e-01  3.65504e-01  6.43878e-01
  4.23056e-01  1.74107e-01  6.01899e-01
  4.59202e-01  1.11501e-01  5.51315e-01
  3.41327e-01  3.15665e-01  6.07715e-01
  4.47315e-01  1.32089e-01  5.26253e-01
  5.22209e-01  2.36825e-03  2.78225e-01
  3.14442e-01  3.62232e-01  3.26288e-01
  3.28803e-01  3.37359e-01  2.92896e-01
  3.75295e-01  2.56832e-01  2.83199e-01
  4.98960e-01  4.26381e-02  6.46498e-01
  4.49541e-01  1.28234e-01  4.10261e-01
  4.00644e-01  2.12927e-01  3.91750e-01
  4.42361e-01  1.40669e-01  3.06766e-01
  3.73908e-01  2.59235e-01  3.39812e-01
  3.26370e-01  3.41572e-01  3.32347e-01
  2.66940e-01  4.44508e-01  4.23107e-01
  2.80513e-01  4.20999e-01  4.66587e-01
  3.28975e-01  3.37060e-01  2.97977e-01
  3.35609e-01  3.25570e-01  2.87092e-01
  5.09221e-01  2.48644e-02  5.79144e-01
  3.50236e-01  3.00235e-01  4.15577e-01
  2.71690e-01  4.36280e-01  5.79538e-01
  4.25747e-01  1.69447e-01  5.63149e-01
  3.90617e-01  2.30292e-01  5.14834e-01
  3.59832e-01  2.83614e-01  2.70606e-01
  3.73967e-01  2.59131e-01  6.40892e-01
  4.80897e-01  7.39235e-02  3.43332e-01
  3.23132e-01  3.47181e-01  5.95822e-01
  4.99074e-01  4.24401e-02  5.87463e-01
  4.66396e-01  9.90395e-02  3.05259e-01
  2.84870e-01  4.13453e-01  4.73090e-01
  2.74379e-01  4.31624e-01  4.16503e-01
  4.42064e-01  1.41185e-01  2.83231e-01
  3.51128e-01  2.98689e-01  5.93963e-01
  4.85416e-01  6.60965e-02  3.66819e-01
  3.17027e-01  3.57754e-01  3.99356e-01
  5.22131e-01  2.50456e-03  5.07272e-01
  3.04229e-01  3.79922e-01  5.55406e-01
  4.12857e-01  1.91772e-01  6.35005e-01
  3.61947e-01  2.79951e-01  3.45648e-01
  3.50949e-01  2.99001e-01  3.76888e-01
  4.77777e-01  7.93275e-02  3.48337e-01
  3.04082e-01  3.80176e-01  3.86671e-01
  3.28695e-01  3.37544e-01  5.75100e-01
  2.92299e-01  4.00585e-01  5.75024e-01
  3.95116e-01  2.22500e-01  6.72871e-01
  5.09762e-01  2.39284e-02  3.84908e-01
  4.93926e-01  5.13571e-02  3.53741e-01
 0.2608     -0.455454    0.288873  
  0.0339732  -0.455454    0.279851  
  0.187707   -0.455454    0.504719  
 -0.121847   -0.455454    0.619317  
 -0.0928708  -0.455454    0.403937  
 -0.212044   -0.455454    0.342413  
  0.154759   -0.455454    0.426264  
 -0.104234   -0.455454    0.296035  
 -0.062332   -0.455454    0.34319   
 -0.255273   -0.455454    0.469071  
 -0.231579   -0.455454    0.550018  
  0.0520337  -0.455454    0.599235  
 -0.117262   -0.455454    0.52345   
  0.254832   -0.455454    0.493014  
  0.19709    -0.455454    0.342101  
  0.00702342 -0.455454    0.275176  
  0.137764   -0.455454    0.588732  
 -0.0619588  -0.455454    0.45261   
  0.108009   -0.455454    0.586581  
  0.0183388  -0.455454    0.350085  
 -0.0335712  -0.455454    0.565187  
 -0.0114611  -0.455454    0.353947  
 -0.19958    -0.455454    0.503104  
 -0.0334797  -0.455454    0.43397   
 -0.254683   -0.455454    0.312678  
 -0.0277462  -0.455454    0.383545  
 -0.185526   -0.455454    0.447049  
 -0.134563   -0.455454    0.384113  
 -0.0687094  -0.455454    0.536816  
  0.245681   -0.455454    0.384459  
  0.237409   -0.455454    0.31924   
 -0.0305021  -0.455454    0.435264  
 -0.199629   -0.455454    0.458251  
  0.245537   -0.455454    0.590553  
 -0.162351   -0.455454    0.500994  
 -0.253988   -0.455454    0.452464  
  0.0169868  -0.455454    0.643445  
 -0.178813   -0.455454    0.41143   
 -0.216258   -0.455454    0.554774  
  0.235446   -0.455454    0.432336  
  0.201221   -0.455454    0.351919  
  0.111067   -0.455454    0.448399  
  0.152599   -0.455454    0.366585  
 -0.0306035  -0.455454    0.579046  
 -0.0872541  -0.455454    0.268681  
 -0.242609   -0.455454    0.318502  
  0.226763   -0.455454    0.391652  
  0.0959993  -0.455454    0.591566  
 -0.136117   -0.455454    0.497996  
 -0.141788   -0.455454    0.271971  
 -0.133363   -0.455454    0.547892  
 -0.0783799  -0.455454    0.413562  
  0.106978   -0.455454    0.492143  
 -0.0613784  -0.455454    0.531692  
 -0.161544   -0.455454    0.656228  
  0.129785   -0.455454    0.39412   
  0.00922084 -0.455454    0.570704  
  0.110765   -0.455454    0.423756  
  0.172098   -0.455454    0.6128    
  0.0609794  -0.455454    0.573487  
  0.173836   -0.455454    0.387098  
  0.213274   -0.455454    0.286467  
  0.170906   -0.455454    0.603408  
  0.1308     -0.455454    0.333749  
 -0.117544   -0.455454    0.565446  
  0.256992   -0.455454    0.496204  
 -0.181815   -0.455454    0.6362    
 -0.119105   -0.455454    0.550616  
  0.207091   -0.455454    0.611289  
  0.106061   -0.455454    0.413691  
  0.00404202 -0.455454    0.325135  
 -0.231046   -0.455454    0.51793   
 -0.0196208  -0.455454    0.641238  
  0.257054   -0.455454    0.570917  
 -0.148495   -0.455454    0.368136  
 -0.210479   -0.455454    0.414181  
 -0.198708   -0.455454    0.380955  
  0.262734   -0.455454    0.540944  
  0.200322   -0.455454    0.382799  
 -0.00659354 -0.455454    0.531491  
  0.116412   -0.455454    0.552734  
  0.190852   -0.455454    0.511229  
 -0.109471   -0.455454    0.425378  
 -0.0843214  -0.455454    0.613886  
 -0.213513   -0.455454    0.487832  
 -0.0720169  -0.455454    0.517772  
 -0.0165709  -0.455454    0.609663  
 -0.242751   -0.455454    0.563206  
 -0.0414516  -0.455454    0.523237  
  0.0920105  -0.455454    0.376198  
 -0.150669   -0.455454    0.354456  
 -0.240378   -0.455454    0.379314  
 -0.133188   -0.455454    0.541057  
 -0.136316   -0.455454    0.312521  
  0.145663   -0.455454    0.488781  
  0.135581   -0.455454    0.354983  
  0.237427   -0.455454    0.52087   
  0.00605953 -0.455454    0.506304  
  0.0942165  -0.455454    0.603084  
 -0.112228   -0.455454    0.357028  
 -0.0668178  -0.455454    0.53026   
  0.148295   -0.455454    0.394748  
  0.0998465  -0.455454    0.489705  
  0.0115536  -0.455454    0.40646   
  0.0269902  -0.455454    0.557385  
  0.217273   -0.455454    0.64479   
  0.0797018  -0.455454    0.382916  
 -0.101874   -0.455454    0.405564  
 -0.103015   -0.455454    0.433331  
 -0.0707545  -0.455454    0.383017  
 -0.220913   -0.455454    0.618336  
  0.218088   -0.455454    0.5344    
 -0.0692574  -0.455454    0.283069  
  0.0497612  -0.455454    0.389978  
  0.228226   -0.455454    0.516331  
  0.0450231  -0.455454    0.296021  
 -0.0941516  -0.455454    0.39595   
  0.0136467  -0.455454    0.267524  
  0.170449   -0.455454    0.532666  
  0.197285   -0.455454    0.56701   
  0.0489546  -0.455454    0.63263   
  0.144967   -0.455454    0.567754  
  0.18317    -0.455454    0.4363    
 -0.0858691  -0.455454    0.461171  
  0.190876   -0.455454    0.377524  
  0.211784   -0.455454    0.507231  
 -0.238153   -0.455454    0.541627  
  0.0125383  -0.455454    0.627165  
 -0.0397274  -0.455454    0.576009  
 -0.253704   -0.455454    0.43487   
  0.0696464  -0.455454    0.574402  
  0.131151   -0.455454    0.372685  
  0.163779   -0.455454    0.260663  
  0.111564   -0.455454    0.488182  
  0.00998873 -0.455454    0.362594  
 -0.141768   -0.455454    0.434856  
  0.00233773 -0.455454    0.335863  
  0.0984917  -0.455454    0.417835  
  0.198558   -0.455454    0.557101  
  0.232908   -0.455454    0.457648  
 -0.0941758  -0.455454    0.602719  
  0.224308   -0.455454    0.60706   
  0.251008   -0.455454    0.41394   
 -0.088262   -0.455454    0.522101  
 -0.217816   -0.455454    0.513407  
  0.059181   -0.455454    0.636359  
 -0.0886141  -0.455454    0.597187  
 -0.0979242  -0.455454    0.667404  
  0.223956   -0.455454    0.48714   
 -0.200497   -0.455454    0.570031  
  0.25253    -0.455454    0.282697  
 -0.247691   -0.455454    0.445198  
 -0.140823   -0.455454    0.527171  
  0.216036   -0.455454    0.572984  
  0.0989151  -0.455454    0.526847  
  0.189439   -0.455454    0.598066  
  0.0973259  -0.455454    0.509666  
  0.220242   -0.455454    0.363271  
 -0.20042    -0.455454    0.565393  
  0.182418   -0.455454    0.472371  
 -0.205694   -0.455454    0.438866  
  0.166663   -0.455454    0.333628  
  0.202353   -0.455454    0.294656  
  0.0223616  -0.455454    0.453976  
 -0.0299678  -0.455454    0.45215   
  0.0557288  -0.455454    0.540845  
  0.0223322  -0.455454    0.579068  
  0.207106   -0.455454    0.51323   
  0.182509   -0.455454    0.372534  
 -0.0346165  -0.455454    0.33893   
 -0.136041   -0.455454    0.473905  
  0.024489   -0.455454    0.651426  
 -0.0913798  -0.455454    0.271532  
  0.22593    -0.455454    0.56573   
  0.12385    -0.455454    0.533708  
 -0.125727   -0.455454    0.424491  
 -0.0382095  -0.455454    0.256887  
  0.0986013  -0.455454    0.576345  
  0.0396774  -0.455454    0.606981  
 -0.110695   -0.455454    0.556875  
  0.206525   -0.455454    0.612474  
 -0.101492   -0.455454    0.381394  
 -0.0963015  -0.455454    0.330987  
  0.152691   -0.455454    0.408701  
 -0.0342106  -0.455454    0.293991  
  0.0740253  -0.455454    0.267655  
  0.0376921  -0.455454    0.495637  
  0.184275   -0.455454    0.485434  
 -0.017726   -0.455454    0.397954  
  0.155255   -0.455454    0.650758  
 -0.237333   -0.455454    0.611634  
  0.210983   -0.455454    0.546029  
 -0.18531    -0.455454    0.50787   
  0.17118    -0.455454    0.493291  
  0.11305    -0.455454    0.626084  
  0.0167955  -0.455454    0.383124  
 -0.109967   -0.455454    0.317043  
  0.112806   -0.455454    0.51742   
  0.168195   -0.455454    0.593605  
  0.0651643  -0.455454    0.376982  
 -0.0119618  -0.455454    0.563876  
 -0.231339   -0.455454    0.634805  
  0.194267   -0.455454    0.577696  
  0.0589639  -0.455454    0.557459  
 -0.173691   -0.455454    0.641977  
  0.104004   -0.455454    0.598833  
  0.171725   -0.455454    0.647342  
 -0.16984    -0.455454    0.413194  
 -0.0289787  -0.455454    0.655695  
 -0.0550731  -0.455454    0.480085  
  0.18143    -0.455454    0.595966  
  0.110811   -0.455454    0.481139  
 -0.0478836  -0.455454    0.482557  
 -0.243444   -0.455454    0.471935  
 -0.101183   -0.455454    0.265559  
 -0.151203   -0.455454    0.655465  
  0.210209   -0.455454    0.44889   
 -0.256298   -0.455454    0.361203  
 -0.0389902  -0.455454    0.451571  
  0.0429123  -0.455454    0.297212  
 -0.12796    -0.455454    0.475506  
  0.0542402  -0.455454    0.5331    
 -0.132295   -0.455454    0.430851  
  0.072133   -0.455454    0.553769  
  0.106045   -0.455454    0.431455  
 -0.187453   -0.455454    0.464506  
  0.13542    -0.455454    0.408149  
  0.0705129  -0.455454    0.366837  
 -0.220963   -0.455454    0.548781  
 -0.0528682  -0.455454    0.283967  
  0.00219241 -0.455454    0.505432  
 -0.090472   -0.455454    0.629891  
 -0.16071    -0.455454    0.394578  
  0.235256   -0.455454    0.571584  
 -0.0268388  -0.455454    0.644136  
  0.0615906  -0.455454    0.440137  
  0.169423   -0.455454    0.585303  
  0.201299   -0.455454    0.284129  
  0.0802426  -0.455454    0.441961  
  0.132237   -0.455454    0.28877   
  0.230351   -0.455454    0.540387  
  0.14217    -0.455454    0.59591   
  0.247547   -0.455454    0.293758  
 -0.160996   -0.455454    0.64476   
  0.0420643  -0.455454    0.538923  
 -0.00758043 -0.455454    0.449703  
 -0.139181   -0.455454    0.623142  
 -0.174163   -0.455454    0.606759  
 -0.238016   -0.455454    0.32064   
 -0.0873614  -0.455454    0.372646  
  0.0506449  -0.455454    0.403308  
 -0.0163664  -0.455454    0.51637   
  0.00645084 -0.455454    0.285275  
  0.197529   -0.455454    0.441701  
 -0.136711   -0.455454    0.346447  
 -0.184735   -0.455454    0.317708  
  0.0448309  -0.455454    0.589679  
  0.0761343  -0.455454    0.493875  
  0.242126   -0.455454    0.257872  
  0.12919    -0.455454    0.640308  
  0.0223729  -0.455454    0.396093  
 -0.230488   -0.455454    0.53699   
 -0.0228101  -0.455454    0.365893  
 -0.157007   -0.455454    0.484996  
 -0.127581   -0.455454    0.559413  
 -0.0414856  -0.455454    0.358027  
  0.0438131  -0.455454    0.638682  
  0.194026   -0.455454    0.582781  
 -0.160643   -0.455454    0.519262  
 -0.20582    -0.455454    0.399882  
 -0.0448601  -0.455454    0.348737  
  0.147554   -0.455454    0.553635  
 -0.0151268  -0.455454    0.363609  
 -0.0675624  -0.455454    0.624425  
  0.190367   -0.455454    0.598518  
 -0.173254   -0.455454    0.315583  
  0.144416   -0.455454    0.642458  
 -0.00684044 -0.455454    0.648626  
  0.0918599  -0.455454    0.608111  
 -0.155183   -0.455454    0.295776  
 -0.213384   -0.455454    0.43681   
 -0.176576   -0.455454    0.372289  
 -0.134045   -0.455454    0.539157  
  0.209939   -0.455454    0.590905  
 -0.141353   -0.455454    0.508805  
  0.00401579 -0.455454    0.344036  
  0.0684877  -0.455454    0.416055  
  0.0264553  -0.455454    0.395095  
  0.175122   -0.455454    0.271832  
 -0.199612   -0.455454    0.343641  
 -0.125405   -0.455454    0.372627  
 -0.243767   -0.455454    0.502666  
  0.143273   -0.455454    0.282745  
  0.0707076  -0.455454    0.601392  
 -0.21238    -0.455454    0.397015  
  0.193693   -0.455454    0.456899  
 -0.221043   -0.455454    0.523442  
 -0.0884558  -0.455454    0.375792  
 -0.0184878  -0.455454    0.381463  
 -0.180955   -0.455454    0.572632  
  0.251686   -0.455454    0.473142  
 -0.0925962  -0.455454    0.501873  
 -0.0368353  -0.455454    0.506188  
 -0.235669   -0.455454    0.419876  
  0.160021   -0.455454    0.414859  
  0.00794527 -0.455454    0.659581  
  0.0471762  -0.455454    0.323377  
 -0.187213   -0.455454    0.636033  
 -0.0613617  -0.455454    0.363573  
  0.0754544  -0.455454    0.609427  
 -0.222999   -0.455454    0.447627  
 -0.0754193  -0.455454    0.594337  
 -0.231341   -0.455454    0.630539  
 -0.0929711  -0.455454    0.436217  
 -0.16054    -0.455454    0.434961  
 -0.095384   -0.455454    0.599261  
  0.248913   -0.455454    0.294508  
 -0.00469054 -0.455454    0.579271  
 -0.0196872  -0.455454    0.261961  
  0.0330225  -0.455454    0.355862  
  0.256296   -0.455454    0.479501  
 -0.132      -0.455454    0.556243  
 -0.239782   -0.455454    0.345756  
 -0.0259195  -0.455454    0.559925  
 -0.026207   -0.455454    0.387073  
  0.220476   -0.455454    0.320197  
  0.181547   -0.455454    0.315138  
  0.0641755  -0.455454    0.426332  
  0.101956   -0.455454    0.513754  
  0.201601   -0.455454    0.516121  
  0.0669249  -0.455454    0.372973  
  0.00586507 -0.455454    0.410818  
 -0.0276721  -0.455454    0.635608  
  0.0821169  -0.455454    0.345029  
  0.112726   -0.455454    0.274678  
  0.157349   -0.455454    0.506095  
  0.033793   -0.455454    0.658244  
  0.0710459  -0.455454    0.414921  
 -0.0217228  -0.455454    0.390939  
  0.121651   -0.455454    0.655879  
 -0.118585   -0.455454    0.358758  
  0.0994265  -0.455454    0.500129  
 -0.0220758  -0.455454    0.610733  
 -0.188755   -0.455454    0.59443   
 -0.0125086  -0.455454    0.415257  
 -0.169893   -0.455454    0.487856  
 -0.117413   -0.455454    0.382532  
  0.149212   -0.455454    0.339084  
  0.049304   -0.455454    0.282905  
 -0.143601   -0.455454    0.520943  
  0.142514   -0.455454    0.315781  
 -0.152535   -0.455454    0.257726  
  0.0145936  -0.455454    0.296564  
  0.227323   -0.455454    0.375737  
  0.0833562  -0.455454    0.545722  
 -0.152568   -0.455454    0.488075  
  0.158847   -0.455454    0.648977  
  0.032226   -0.455454    0.505931  
  0.019241   -0.455454    0.581071  
  0.0922993  -0.455454    0.533846  
 -0.155317   -0.455454    0.383958  
 -0.158247   -0.455454    0.463341  
 -0.234634   -0.455454    0.343299  
  0.0815754  -0.455454    0.548916  
 -0.0528636  -0.455454    0.596256  
 -0.107511   -0.455454    0.549009  
 -0.241948   -0.455454    0.637837  
  0.182537   -0.455454    0.474836  
  0.115889   -0.455454    0.527118  
  0.0435301  -0.455454    0.486799  
  0.18379    -0.455454    0.523065  
  0.0800524  -0.455454    0.596813  
 -0.022163   -0.455454    0.506053  
 -0.227716   -0.455454    0.302579  
 -0.207044   -0.455454    0.55745   
  0.207298   -0.455454    0.364843  
  0.245252   -0.455454    0.613883  
  0.0885408  -0.455454    0.408388  
 -0.0284873  -0.455454    0.399232  
 -0.214722   -0.455454    0.393877  
 -0.0138843  -0.455454    0.471218  
 -0.149757   -0.455454    0.285381  
 -0.243333   -0.455454    0.365104  
 -0.158838   -0.455454    0.257019  
 -0.150368   -0.455454    0.547565  
  0.170774   -0.455454    0.534326  
  0.125551   -0.455454    0.420667  
 -0.178883   -0.455454    0.599191  
  0.189998   -0.455454    0.532698  
 -0.0225946  -0.455454    0.506573  
  0.247162   -0.455454    0.332523  
  0.045767   -0.455454    0.362215  
 -0.0338583  -0.455454    0.511196  
  0.222939   -0.455454    0.577507  
 -0.0139636  -0.455454    0.257891  
  0.0877462  -0.455454    0.533428  
 -0.0577985  -0.455454    0.463792  
  0.11349    -0.455454    0.25619   
 -0.203842   -0.455454    0.368019  
  0.221568   -0.455454    0.576996  
 -0.0203233  -0.455454    0.352641  
  0.0757395  -0.455454    0.619488  
 -0.0560772  -0.455454    0.649068  
  0.0648813  -0.455454    0.321156  
  0.028549   -0.455454    0.397728  
  0.00442461 -0.455454    0.432241  
  0.125738   -0.455454    0.291474  
  0.215718   -0.455454    0.31261   
 -0.042736   -0.455454    0.66849   
  0.165515   -0.455454    0.258292  
 -0.0823082  -0.455454    0.294937  
 -0.158776   -0.455454    0.38568   
 -0.258988   -0.455454    0.458943  
 -0.214163   -0.455454    0.355795  
  0.0997094  -0.455454    0.619936  
 -0.0182983  -0.455454    0.264586  
  0.209305   -0.455454    0.489725  
 -0.133331   -0.455454    0.337766  
 -0.00243169 -0.455454    0.51222   
  0.0627512  -0.455454    0.620992  
  0.186156   -0.455454    0.472977  
 -0.0578935  -0.455454    0.486666  
 -0.0675844  -0.455454    0.625866  
 -0.0829059  -0.455454    0.420272  
  0.180971   -0.455454    0.370473  
 -0.180307   -0.455454    0.301382  
  0.203092   -0.455454    0.45537   
  0.107753   -0.455454    0.432222  
  0.0624929  -0.455454    0.413558  
  0.050971   -0.455454    0.446346  
 -0.255372   -0.455454    0.528283  
 -0.134774   -0.455454    0.273971  
  0.121463   -0.455454    0.339484  
  0.0830562  -0.455454    0.317541  
 -0.0519229  -0.455454    0.418511  
  0.128725   -0.455454    0.59857   
  0.110886   -0.455454    0.290477  
 -0.0670715  -0.455454    0.568182  
 -0.0878192  -0.455454    0.551613  
  0.0304244  -0.455454    0.449507  
  0.00260119 -0.455454    0.654266  
 -0.250129   -0.455454    0.321635  
 -0.202405   -0.455454    0.524372  
 -0.0135573  -0.455454    0.575549  
 -0.132957   -0.455454    0.534559  
  0.0255374  -0.455454    0.297988  
 -0.156761   -0.455454    0.274473  
  0.114239   -0.455454    0.583367  
 -0.159986   -0.455454    0.428302  
  0.0168629  -0.455454    0.582667  
 -0.096832   -0.455454    0.352195  
  0.157934   -0.455454    0.487964  
  0.0408679  -0.455454    0.284453  
  0.255571   -0.455454    0.496566  
 -0.252482   -0.455454    0.348621  
  0.00930242 -0.455454    0.672426  
  0.165808   -0.455454    0.365561  
  0.0842483  -0.455454    0.383716  
 -0.235803   -0.455454    0.613633  
  0.0572286  -0.455454    0.362834  
 -0.229861   -0.455454    0.500651  
 -0.195593   -0.455454    0.491909  
  0.215609   -0.455454    0.535246  
  0.101451   -0.455454    0.418733  
  0.0636436  -0.455454    0.57653   
  0.120775   -0.455454    0.61382   
  0.243237   -0.455454    0.606091  
 -0.194571   -0.455454    0.326821  
  0.0285795  -0.455454    0.262256  
 -0.0773404  -0.455454    0.610899  
 -0.0502713  -0.455454    0.655551  
  0.218871   -0.455454    0.572706  
  0.230159   -0.455454    0.593216  
  0.0920923  -0.455454    0.282892  
  0.127219   -0.455454    0.37413   
  0.238898   -0.455454    0.460299  
  0.115339   -0.455454    0.418635  
  0.167673   -0.455454    0.381145  
 -0.0566128  -0.455454    0.496753  
  0.0844737  -0.455454    0.606859  
 -0.108819   -0.455454    0.585089  
  0.136446   -0.455454    0.353923  
 -0.0537353  -0.455454    0.466002  
 -0.068017   -0.455454    0.546066  
  0.112197   -0.455454    0.521179  
 -0.0494077  -0.455454    0.554383  
 -0.128439   -0.455454    0.425938  
  0.122797   -0.455454    0.326561  
 -0.0771113  -0.455454    0.662756  
 -0.0500324  -0.455454    0.412476  
 -0.03204    -0.455454    0.484339  
 -0.149841   -0.455454    0.648852  
 -0.106193   -0.455454    0.293179  
 -0.114454   -0.455454    0.398189  
 -0.198411   -0.455454    0.648007  
  0.241691   -0.455454    0.351571  
 -0.115404   -0.455454    0.649504  
  0.12597    -0.455454    0.485949  
  0.0396239  -0.455454    0.54837   
 -0.25223    -0.455454    0.628625  
 -0.0392098  -0.455454    0.5567    
 -0.0974803  -0.455454    0.625249  
 -0.20154    -0.455454    0.481796  
 -0.259397   -0.455454    0.524984  
 -0.00555294 -0.455454    0.280069  
 -0.079259   -0.455454    0.580793  
  0.099561   -0.455454    0.566933  
 -0.0508152  -0.455454    0.633972  
 -0.22213    -0.455454    0.576319  
 -0.104025   -0.455454    0.407364  
 -0.201247   -0.455454    0.643598  
 -0.0856296  -0.455454    0.531567  
 0.317738   -0.360886    0.347917  
  0.511448   -0.0253699   0.514335  
  0.52149    -0.00797695  0.497948  
  0.501764   -0.0421425   0.606459  
  0.41565    -0.191297    0.324999  
  0.27909    -0.427825    0.436852  
  0.303677   -0.385239    0.399747  
  0.266334   -0.449919    0.48344   
  0.501032   -0.0434107   0.511401  
  0.454913   -0.123292    0.645575  
  0.286942   -0.414226    0.424859  
  0.392185   -0.231939    0.430696  
  0.387303   -0.240395    0.543613  
  0.480788   -0.0784744   0.255259  
  0.38106    -0.251209    0.327618  
  0.467441   -0.101592    0.266268  
  0.263454   -0.454909    0.282222  
  0.460891   -0.112937    0.384035  
  0.426206   -0.173013    0.432482  
  0.443901   -0.142364    0.335769  
  0.332873   -0.334671    0.264749  
  0.34821    -0.308107    0.465479  
  0.466366   -0.103453    0.574809  
  0.51107    -0.026024    0.518961  
  0.442674   -0.14449     0.269136  
  0.336523   -0.328349    0.560439  
  0.477849   -0.083565    0.551608  
  0.406206   -0.207654    0.557139  
  0.422654   -0.179165    0.446623  
  0.421689   -0.180838    0.593794  
  0.521599   -0.00778767  0.309757  
  0.319161   -0.35842     0.428094  
  0.394084   -0.228651    0.562422  
  0.489032   -0.064196    0.548864  
  0.350306   -0.304475    0.411452  
  0.502392   -0.0410548   0.363137  
  0.485254   -0.0707392   0.482647  
  0.40332    -0.212653    0.659584  
  0.44542    -0.139733    0.25677   
  0.277047   -0.431363    0.519509  
  0.40372    -0.211961    0.385622  
  0.288971   -0.410711    0.554736  
  0.329858   -0.339893    0.36249   
  0.441948   -0.145747    0.540682  
  0.298829   -0.393637    0.335295  
  0.385633   -0.243288    0.561859  
  0.505411   -0.0358257   0.552659  
  0.407499   -0.205415    0.362858  
  0.458684   -0.11676     0.484262  
  0.466164   -0.103805    0.332423  
  0.454832   -0.123432    0.475652  
  0.294834   -0.400556    0.642237  
  0.451754   -0.128763    0.616531  
  0.461646   -0.111629    0.43822   
  0.299529   -0.392424    0.496078  
  0.518346   -0.0134218   0.34909   
  0.387919   -0.239329    0.391427  
  0.395157   -0.226792    0.568517  
  0.498466   -0.047856    0.461725  
  0.443984   -0.142221    0.407107  
  0.344974   -0.313711    0.582458  
  0.405289   -0.209243    0.592458  
  0.439937   -0.149231    0.308325  
  0.275998   -0.433181    0.34967   
  0.473043   -0.0918893   0.594627  
  0.48215    -0.076115    0.564742  
  0.287096   -0.413959    0.463531  
  0.482339   -0.0757879   0.268627  
  0.502484   -0.0408961   0.376898  
  0.277239   -0.431032    0.287258  
  0.449792   -0.13216     0.573715  
  0.385492   -0.243532    0.333221  
  0.477319   -0.0844832   0.417019  
  0.359347   -0.288817    0.297585  
  0.445863   -0.138966    0.617267  
  0.521024   -0.00878439  0.528725  
  0.285877   -0.41607     0.620196  
  0.363778   -0.281142    0.438161  
  0.352754   -0.300236    0.520354  
  0.374931   -0.261825    0.665473  
  0.393104   -0.230348    0.399545  
  0.378927   -0.254902    0.475364  
  0.418211   -0.186861    0.343872  
  0.419087   -0.185343    0.418927  
  0.488134   -0.0657505   0.406276  
  0.419951   -0.183848    0.568327  
  0.316906   -0.362326    0.580044  
  0.497943   -0.0487617   0.43239   
  0.330532   -0.338725    0.325591  
  0.352566   -0.300562    0.440624  
  0.448179   -0.134955    0.600482  
  0.407595   -0.205249    0.552087  
  0.408034   -0.204488    0.411193  
  0.38792    -0.239326    0.402646  
  0.451032   -0.130014    0.513432  
  0.484698   -0.0717028   0.329107  
  0.515819   -0.0177988   0.456181  
  0.320017   -0.356938    0.594452  
  0.48219    -0.0760463   0.64274   
  0.270729   -0.442307    0.443217  
  0.403487   -0.212364    0.439762  
  0.29692    -0.396943    0.624991  
  0.442844   -0.144195    0.343975  
  0.375525   -0.260795    0.672807  
  0.365986   -0.277317    0.62767   
  0.468403   -0.0999268   0.598056  
  0.355019   -0.296313    0.31167   
  0.364644   -0.279642    0.313989  
  0.436526   -0.155138    0.654298  
  0.321721   -0.353986    0.306719  
  0.292113   -0.40527     0.6293    
  0.303601   -0.385371    0.256376  
  0.502896   -0.0401826   0.445424  
  0.494607   -0.0545386   0.434006  
  0.512154   -0.0241467   0.483822  
  0.481676   -0.0769364   0.464567  
  0.444448   -0.141418    0.500957  
  0.266097   -0.450331    0.575573  
  0.322655   -0.352369    0.339172  
  0.332525   -0.335273    0.653841  
  0.388203   -0.238837    0.438987  
  0.446043   -0.138654    0.379936  
  0.496216   -0.0517529   0.340699  
  0.48623    -0.0690488   0.613058  
  0.429687   -0.166984    0.428142  
  0.289236   -0.410252    0.59092   
  0.271322   -0.441281    0.576005  
  0.367806   -0.274165    0.413973  
  0.445065   -0.140348    0.51897   
  0.510553   -0.0269195   0.430577  
  0.407697   -0.205072    0.611532  
  0.405123   -0.209531    0.544527  
  0.39722    -0.223219    0.5522    
  0.496535   -0.0512005   0.622831  
  0.416731   -0.189424    0.330571  
  0.503247   -0.0395747   0.585544  
  0.309648   -0.374898    0.332115  
  0.43779    -0.15295     0.384525  
  0.47276    -0.0923787   0.40428   
  0.362931   -0.282609    0.32229   
  0.33846    -0.324994    0.632956  
  0.349259   -0.306289    0.317717  
  0.282623   -0.421707    0.534467  
  0.420111   -0.18357     0.296903  
  0.285275   -0.417114    0.416426  
  0.290956   -0.407273    0.607171  
  0.305267   -0.382486    0.39673   
  0.437883   -0.152787    0.648083  
  0.487094   -0.0675528   0.488477  
  0.34246    -0.318066    0.281171  
  0.379392   -0.254098    0.440573  
  0.495971   -0.0521771   0.611925  
  0.361054   -0.28586     0.25608   
  0.374064   -0.263326    0.524011  
  0.48446    -0.0721146   0.345077  
  0.313613   -0.36803     0.272741  
  0.419372   -0.18485     0.33538   
  0.469183   -0.0985744   0.61751   
  0.484181   -0.0725968   0.445142  
  0.410244   -0.20066     0.663197  
  0.285701   -0.416375    0.284155  
  0.44092    -0.147528    0.558311  
  0.379001   -0.254775    0.287317  
  0.482233   -0.0759715   0.543757  
  0.378596   -0.255476    0.559463  
  0.515409   -0.0185086   0.555803  
  0.337175   -0.327219    0.370623  
