 -1.73739e-01  6.58595e-02  8.48918e-01
 -8.12914e-02 -1.85431e-01 -2.63824e-01
 -1.77982e-01 -6.50698e-02  5.91643e-02
  9.16804e-02  4.47564e-01 -4.70397e-01
  2.63519e-01  3.04830e-01 -4.35710e-01
 -1.73148e-01  2.85830e-01 -3.91045e-01
  1.43178e-01  1.28743e-01  6.75141e-02
  1.80166e-01  4.58730e-02  5.41380e-01
  5.21072e-02 -1.74993e-01  3.72922e-01
 -1.45072e-01 -1.12001e-01  4.92587e-01
  2.02862e-01  1.03708e-01 -3.22486e-01
 -2.74734e-01 -2.74458e-01 -4.28933e-01
 -1.83977e-02 -4.53358e-01 -4.90569e-01
 -3.42792e-01  2.59099e-01 -4.95399e-01
  1.70321e-01 -9.68182e-02 -1.79983e-01
 -2.06126e-01  6.59072e-02 -1.58790e-01
 -1.84243e-02 -1.37302e-01  1.00000e+00
  1.78241e-01 -4.79106e-02  7.01431e-01
  1.54199e-01  1.98434e-01 -3.37183e-01
  9.49641e-02  1.63459e-01  7.46293e-02
 -1.80898e-01 -3.73655e-01 -4.46634e-01
 -6.69174e-02  6.67103e-03 -4.95399e-01
 -1.83301e-01  2.66753e-02  4.81900e-01
 -1.63428e-02  3.89435e-01 -4.26834e-01
  1.84160e-01 -1.77001e-02  7.93602e-01
 -1.08880e-01 -1.53672e-01  2.35897e-02
  1.69790e-01  7.67798e-02  7.12524e-01
  1.14631e-01  1.48120e-01  7.39206e-01
 -4.99020e-02  1.80817e-01  5.37725e-01
  1.55439e-01 -9.81209e-02  3.67227e-01
  9.77732e-02 -1.87849e-01 -3.14422e-01
 -6.72907e-02 -3.47375e-01 -4.06926e-01
 -8.89755e-02 -3.03384e-02  1.00000e+00
  3.93770e-01 -1.22079e-02 -4.95399e-01
 -1.83778e-01  2.26947e-02  2.13604e-01
  7.36684e-02 -2.97260e-01 -4.95399e-01
  3.36792e-02  2.38771e-01 -2.95775e-01
  1.03927e-01  1.55936e-01  6.05993e-01
 -1.58689e-01 -9.22346e-02  4.31928e-01
  2.15898e-01  2.13892e-01 -4.95399e-01
 -1.71384e-01  8.56878e-02 -3.00752e-02
  3.52324e-01  1.23027e-01 -4.17085e-01
  1.85197e-01  8.28124e-03  1.55532e-01
  3.64602e-01  1.54073e-02 -4.12211e-01
 -3.61475e-01  9.94991e-02 -4.18580e-01
 -2.05676e-01  8.00239e-02 -3.18258e-01
 -3.05884e-01 -3.35874e-01 -4.74799e-01
 -2.05023e-01  6.70109e-02 -1.96930e-01
  1.83244e-01 -2.47347e-02  3.03035e-01
  1.84842e-01 -1.01106e-02  5.16821e-01
 -2.99635e-01  1.60982e-01 -3.95626e-01
 -1.14508e-01 -1.42578e-01  9.35796e-01
 -1.43664e-02  9.23589e-02 -4.95399e-01
  8.13576e-02 -2.23385e-01 -3.31392e-01
  1.29590e-01 -1.37549e-01 -1.31210e-01
 -9.91300e-02  1.72904e-01 -1.84897e-01
  1.54141e-01 -4.72690e-02 -4.95399e-01
 -1.56416e-01 -9.59415e-02  4.30358e-01
 -1.53752e-01 -1.74498e-01 -4.95399e-01
 -1.20893e-01 -1.37298e-01  3.81446e-01
 -1.75352e-02 -3.30674e-01 -4.95399e-01
  1.71992e-01 -6.62113e-02  3.86933e-01
  1.41515e-01  1.22175e-01  5.14638e-01
 -1.79830e-01 -3.95372e-01 -4.59121e-01
 -3.27599e-01 -5.12168e-02 -3.91162e-01
 -2.97249e-01 -5.98749e-02 -4.95399e-01
  5.42600e-02  1.79661e-01  1.03306e-01
 -2.05239e-02 -2.45626e-01 -2.73536e-01
 -1.50942e-01  1.09454e-01  7.48586e-01
 -2.37135e-01  1.97487e-01 -4.95399e-01
 -4.60917e-02 -2.20631e-01 -3.23345e-01
 -3.48730e-01 -4.09094e-03 -4.02072e-01
 -2.28987e-01 -3.41110e-01 -4.43738e-01
  1.32510e-01 -1.26762e-01  9.10711e-01
 -1.65508e-01  3.48785e-01 -4.95399e-01
 -2.89081e-02 -1.80114e-01  6.38583e-01
  1.62769e-01 -8.58113e-02  7.36317e-01
 -1.88709e-01 -2.28167e-02 -7.04484e-03
 -1.88564e-01 -7.81591e-02 -2.83162e-01
  3.83945e-01  1.68661e-01 -4.95399e-01
  1.89194e-01  3.02985e-01 -4.95399e-01
  6.32030e-02 -1.71368e-01  3.31500e-01
  3.64077e-01  1.71569e-01 -4.95399e-01
  4.44652e-02  1.88073e-01 -3.51503e-02
 -1.79230e-01 -4.26706e-02  3.96997e-01
 -4.01971e-01 -1.98284e-01 -4.67389e-01
 -1.84864e-01  3.48519e-03  5.89448e-01
 -1.20977e-01 -1.44493e-01 -1.94658e-02
  1.40662e-01 -1.08675e-02  1.00000e+00
 -3.97301e-01  3.87615e-02 -4.34634e-01
 -5.98794e-02  1.77704e-01  4.78669e-01
 -1.67097e-01  8.17833e-02  1.29654e-01
  4.29277e-02 -1.08334e-01  1.00000e+00
 -1.83305e-01 -3.39145e-01 -4.27363e-01
  3.01048e-02 -2.37034e-01 -2.27070e-01
 -1.67096e-01 -7.64756e-02  2.28388e-01
  1.83562e-01  4.08580e-01 -4.64681e-01
  1.26965e-01 -1.32197e-01  1.87330e-01
 -1.73925e-01 -7.49085e-02  7.40258e-02
  7.39763e-02  1.98474e-01 -2.18658e-01
 -2.56353e-01 -2.49022e-01 -4.95399e-01
  2.38086e-01  3.43642e-02 -1.20128e-01
 -1.13852e-01 -1.43093e-01  6.64539e-01
  4.38560e-02 -1.77198e-01  4.31557e-01
 -2.14680e-01  5.73540e-02 -1.75800e-01
 -3.29568e-01 -3.12848e-01 -4.77855e-01
  1.36282e-02 -2.49719e-01 -2.70537e-01
 -6.97625e-02 -1.68682e-01  6.77222e-01
 -1.42368e-01  5.14205e-02  1.00000e+00
 -1.84215e-01 -1.28545e-02  8.52344e-01
  1.45978e-01  1.26472e-01 -2.20548e-01
  4.01488e-04  2.07788e-01 -7.66705e-02
 -1.05725e-01 -1.49103e-01  5.27016e-01
  1.30985e-01  1.33613e-01  4.73171e-01
  2.53957e-01 -7.34195e-02 -4.95399e-01
  7.36850e-02  1.72519e-01  8.49866e-01
  2.48095e-01 -1.86468e-02 -3.19827e-01
 -2.82177e-01 -1.20612e-01 -3.75520e-01
 -4.72514e-02 -4.03279e-01 -4.95399e-01
 -3.93735e-02  1.94928e-01 -4.95399e-01
  9.93565e-02  9.62537e-02  1.00000e+00
  1.38033e-01  2.55589e-01 -3.62486e-01
  2.70748e-01 -3.28038e-01 -4.52891e-01
  1.60774e-01  9.46942e-02  2.63950e-01
 -1.87242e-01 -3.19957e-02 -3.84580e-02
  2.53050e-01  1.88365e-01 -4.95399e-01
 -1.81231e-01 -3.94213e-01 -4.95399e-01
 -2.66028e-02  7.81964e-02  1.00000e+00
 -1.02980e-01  1.75608e-01 -3.06214e-01
 -1.46402e-01 -1.10295e-01  2.82015e-01
 -1.43137e-01 -2.81366e-01 -3.82032e-01
  1.78859e-01  9.67676e-02 -3.06557e-01
 -3.05539e-02 -2.31705e-01 -9.46757e-02
  1.02963e-02 -4.21010e-01 -4.50636e-01
 -4.52724e-02 -2.21450e-01 -1.51681e-01
 -2.61296e-02 -2.40593e-01 -1.17929e-01
 -1.87756e-01 -4.06103e-01 -4.67598e-01
  1.78980e-01 -4.52313e-02  8.02091e-01
 -1.21339e-01 -2.71532e-01 -3.70197e-01
  1.80995e-01 -3.69512e-02  6.32651e-01
  1.24851e-01 -1.42288e-01 -2.09649e-01
 -1.21135e-01 -1.45588e-01 -2.31328e-01
  1.25688e-01 -1.33386e-01  8.29962e-01
  1.90218e-01 -6.61018e-02 -7.49526e-02
 -2.84370e-01  1.15915e-01 -3.74332e-01
  1.39682e-01  1.32768e-01 -6.90734e-02
 -6.48286e-02  1.81844e-01  1.85676e-02
 -2.94705e-02  1.85334e-01  5.47336e-01
 -2.23483e-01 -4.32402e-02 -2.16314e-01
  1.41071e-01 -3.37477e-01 -4.95399e-01
 -4.58384e-02  4.35751e-01 -4.58267e-01
  2.25048e-02 -1.81071e-01  1.86436e-01
  1.84801e-01  1.59955e-02  4.69776e-01
 -9.50479e-03  1.54162e-01  1.00000e+00
  1.19475e-01  1.44175e-01  6.63056e-01
  3.20056e-02 -1.79667e-01  7.17767e-01
  4.15245e-01 -1.42553e-01 -4.60974e-01
 -1.33539e-01  1.30578e-01  4.52113e-01
  1.04340e-01 -1.62799e-01 -1.22981e-01
  2.88323e-01  1.92985e-01 -4.95399e-01
  3.87363e-02 -3.65569e-01 -4.15859e-01
  1.43890e-01 -1.13998e-01  5.57303e-01
 -3.50474e-01 -8.69963e-02 -4.10486e-01
  9.79314e-02  1.69872e-01 -7.00494e-02
 -1.46317e-01  5.54662e-02 -4.95399e-01
  1.70819e-01 -6.90699e-02  4.20861e-01
  1.16392e-01  1.46717e-01  2.75893e-01
 -8.65086e-02  1.72416e-01  2.00244e-02
 -2.44683e-01  3.30221e-01 -4.95399e-01
  7.98412e-02 -4.24183e-01 -4.57401e-01
 -1.65726e-01  9.64861e-02  1.11327e-02
  2.07529e-01 -5.04989e-02 -4.95399e-01
 -2.09304e-01 -2.27505e-01 -3.77547e-01
 -8.30879e-03  2.56078e-01 -1.04593e-01
  8.69762e-02 -1.60819e-01  6.69552e-01
  8.70456e-02  1.66093e-01  9.41977e-01
  3.83040e-01  1.63656e-01 -4.45131e-01
 -2.45333e-01 -2.24178e-01 -3.92511e-01
 -2.07753e-01 -3.03150e-01 -4.15589e-01
 -1.51244e-01 -1.03715e-01  1.34329e-01
 -1.57085e-01  1.14948e-01 -1.34750e-01
  1.85277e-01  4.00574e-03  1.05663e-01
  1.82374e-01 -3.00249e-02  1.94652e-01
 -4.16600e-01  1.88573e-01 -4.81538e-01
  1.23088e-01 -1.35739e-01  8.36053e-01
 -1.90403e-01  2.90426e-04  5.51395e-02
 -1.84028e-01 -1.49391e-02  8.32107e-01
 -5.45793e-02  2.17454e-01 -2.18888e-01
  5.20189e-03 -4.47622e-01 -4.67858e-01
 -2.26839e-01  3.35258e-01 -4.36949e-01
  1.42637e-01  1.29354e-01  2.37992e-02
 -1.42543e-01  1.20445e-01  1.17410e-01
  1.61364e-01 -8.83467e-02  3.39924e-01
 -2.11144e-02 -4.16396e-01 -4.47913e-01
  1.78011e-01  5.40245e-02  4.70294e-01
 -2.23316e-01  3.27653e-01 -4.31581e-01
 -5.93604e-02  1.77881e-01  6.76704e-01
 -1.04816e-01  1.55044e-01  5.36618e-01
  3.55609e-01 -9.83108e-02 -4.15359e-01
  1.85088e-01 -5.81881e-03  8.20098e-01
  4.02465e-01 -2.12946e-01 -4.82680e-01
 -2.47762e-01 -1.84280e-02 -2.58028e-01
  3.26223e-01 -2.63926e-01 -4.95399e-01
  1.18536e-01  3.06437e-01 -3.87142e-01
  1.35408e-01  3.38731e-01 -4.10675e-01
 -3.60617e-01  1.87230e-01 -4.38627e-01
  1.41425e-01  1.31026e-01 -2.50756e-01
  1.36122e-01 -1.31017e-01 -1.31874e-01
 -8.44126e-02  1.67251e-01  2.52552e-01
  3.50931e-01 -1.49679e-01 -4.95399e-01
  3.48253e-01  9.78366e-02 -4.95399e-01
 -3.37622e-02  3.52588e-01 -4.03744e-01
  1.45811e-01 -1.11592e-01  2.59644e-01
  4.80176e-02  3.14948e-01 -3.80595e-01
 -2.59882e-01 -6.24923e-02 -3.49549e-01
  9.96490e-02 -1.53434e-01  5.81892e-01
  1.14607e-01 -3.17919e-01 -4.95399e-01
  4.49970e-02  4.50248e-01 -4.95399e-01
 -2.02788e-02  1.86592e-01  2.84811e-01
 -1.75156e-01 -9.15664e-02 -2.58316e-01
  2.22253e-01  5.74441e-02 -4.95399e-01
 -1.80271e-01 -3.83281e-02  2.03037e-01
 -8.27856e-02 -3.75579e-01 -4.26898e-01
  1.47655e-01 -2.15988e-01 -4.95399e-01
 -6.89698e-02  1.74314e-01  3.49683e-01
 -1.44635e-01  1.17864e-01  1.06845e-01
  8.50996e-02 -4.24861e-01 -4.95399e-01
 -1.46726e-01  1.15184e-01  8.61116e-01
  1.38741e-01  1.25380e-01  2.41938e-01
 -1.58776e-01  2.02341e-01 -4.95399e-01
  8.91768e-02 -1.59631e-01  1.35601e-01
 -2.54701e-01 -7.52996e-04 -3.31958e-01
  4.33029e-01 -6.09025e-02 -4.95399e-01
  2.65831e-01  2.50091e-01 -4.11171e-01
  3.20571e-01  3.22296e-01 -4.95399e-01
 -1.03384e-01  1.68650e-01 -2.10968e-01
 -7.97033e-02  2.36771e-01 -4.95399e-01
  3.86000e-01  1.24543e-01 -4.38169e-01
 -4.55634e-01  2.50562e-02 -4.77155e-01
  2.10047e-01  4.07948e-01 -4.72568e-01
  1.56959e-01 -9.57392e-02  5.67679e-01
 -5.45419e-02 -2.12181e-01 -1.96115e-01
 -1.66445e-01 -3.28709e-01 -4.95399e-01
 -4.17971e-02  2.30236e-01 -1.04862e-01
 -1.82591e-01  3.15848e-02  3.12240e-01
 -4.52944e-02 -3.59563e-01 -4.12503e-01
  1.67274e-01  8.22885e-02  8.00010e-01
  3.30156e-01  6.17941e-02 -3.93111e-01
 -1.75431e-01  6.09940e-02  7.39737e-01
  2.41421e-02  2.48228e-01 -3.20308e-01
 -1.55494e-01  1.02702e-01  6.88458e-01
 -1.55850e-01  1.16183e-01 -2.97203e-01
 -9.20447e-02  1.63098e-01  2.79748e-01
 -1.10833e-01 -3.50484e-01 -4.95399e-01
  1.85281e-01  3.44482e-03  4.86316e-01
 -6.33770e-02  1.76464e-01  8.82975e-01
  2.20256e-01  2.30992e-01 -4.95399e-01
  2.01949e-01 -1.95759e-01 -3.59184e-01
  4.17237e-03  1.53982e-01 -4.95399e-01
  7.43658e-02 -1.72210e-01  7.46293e-02
  1.91394e-01  9.81478e-02 -3.14209e-01
  2.26173e-01  1.81157e-01 -3.62432e-01
  6.12556e-02  2.11194e-01 -2.97661e-01
 -1.77133e-01  5.55955e-02  8.86475e-01
 -6.58916e-02  1.75523e-01  8.06947e-01
 -1.31951e-02 -2.62047e-01 -3.47546e-01
 -5.73398e-02  1.78555e-01  2.99934e-01
 -5.82021e-02  1.84112e-01  4.84958e-02
  4.99748e-02  2.22475e-01 -2.22422e-01
 -1.94386e-01  1.46309e-01 -3.32501e-01
 -9.29412e-02  4.49441e-01 -4.77732e-01
 -8.34757e-02  1.60214e-01  9.75662e-01
 -7.94299e-02  1.69719e-01  3.71514e-01
  3.66293e-01 -1.24424e-01 -4.27081e-01
 -4.33819e-01  3.60283e-02 -4.95399e-01
 -2.04477e-01 -2.82977e-01 -4.03628e-01
 -2.22037e-01  6.27693e-02 -4.95399e-01
  1.57934e-01 -3.76593e-01 -4.95399e-01
  3.14864e-01  1.11103e-01 -4.95399e-01
 -3.32384e-01  3.15188e-01 -4.77500e-01
  4.88779e-02  1.81215e-01  8.51901e-01
 -3.04164e-01  4.26095e-02 -3.74784e-01
  9.42101e-03  1.93059e-01  2.85485e-02
 -1.62408e-01 -8.57097e-02  3.45039e-01
  1.85213e-01 -2.68120e-01 -4.95399e-01
 -1.84475e-01  1.46751e-02  1.54788e-01
  2.79861e-01  9.83399e-02 -4.95399e-01
  2.86593e-04 -1.82419e-01  6.01735e-01
 -3.42062e-02 -2.32517e-01 -1.53054e-01
 -2.75662e-01  1.04349e-01 -4.95399e-01
  5.35542e-02 -1.74564e-01  9.65787e-01
 -2.52343e-01 -1.65970e-01 -4.95399e-01
  1.66043e-01 -2.75700e-01 -4.95399e-01
 -1.51530e-01 -6.22605e-02  9.89000e-01
  1.19651e-01 -1.38716e-01  1.25063e-01
 -6.29912e-02  1.76604e-01  6.30190e-01
 -1.31070e-01 -1.27799e-01  1.67032e-01
 -3.25908e-01  6.74004e-02 -4.95399e-01
 -1.71124e-01 -6.73276e-02  1.73255e-01
  1.56295e-01 -7.86830e-02 -4.95399e-01
  3.47991e-01  2.47986e-01 -4.95399e-01
  3.75780e-01  7.23270e-02 -4.95399e-01
 -3.74674e-02 -1.78543e-01  8.18584e-01
 -3.43469e-01  1.08290e-01 -4.08918e-01
  1.83991e-01  2.44837e-02  2.81536e-01
  1.81138e-01 -3.62907e-02  2.47349e-01
 -2.46394e-01 -2.44693e-01 -4.02249e-01
  3.20251e-02  3.19696e-01 -3.82349e-01
  7.35011e-02 -3.00093e-01 -3.77713e-01
  1.07486e-01  1.53466e-01  6.64556e-01
  8.63120e-02 -1.61169e-01  3.55170e-01
  2.24666e-01 -5.49744e-02 -4.95399e-01
 -1.99949e-01 -6.67737e-02 -1.17665e-01
  2.52925e-01 -1.00921e-02 -1.55723e-01
  1.28630e-01  1.35923e-01  8.18767e-01
  3.84847e-02  3.40085e-01 -3.95961e-01
 -2.40377e-01  1.90816e-01 -3.73773e-01
 -1.21740e-01  1.41871e-01  6.89446e-01
 -1.75703e-01  7.60969e-02  7.51055e-03
  1.79295e-01  2.48786e-01 -4.95399e-01
  7.25247e-02 -1.94615e-01 -1.63195e-01
  8.12967e-02 -1.68188e-01 -4.95399e-01
 -1.05918e-01  1.61008e-01  2.18126e-02
 -7.09368e-02 -3.45946e-01 -4.95399e-01
 -2.80479e-02  2.43986e-01 -1.20436e-01
 -2.20898e-01 -2.07659e-01 -3.73596e-01
  1.60309e-01 -9.01899e-02  6.67460e-01
 -4.58877e-03  2.57492e-01 -1.56221e-01
 -1.80215e-01 -3.85761e-02  2.22533e-01
  4.40947e-01  1.91619e-02 -4.95399e-01
 -5.95376e-02 -1.72510e-01  8.36044e-02
  4.45368e-02  1.82342e-01  3.33728e-01
 -6.76540e-02  1.74839e-01  7.06179e-01
 -7.05254e-02 -1.85993e-01 -4.95399e-01
  1.01655e-01  1.70795e-01 -7.60629e-02
  3.03178e-01  9.09528e-02 -4.95399e-01
 -4.21152e-02  1.88524e-01  1.77133e-02
  8.50294e-03  1.87544e-01  5.08758e-01
 -1.76532e-01 -5.22573e-02  8.29674e-01
  3.68518e-01  4.00685e-02 -4.95399e-01
 -4.40296e-02 -1.82767e-01  1.82019e-02
  2.32312e-01  4.50433e-02 -4.95399e-01
 -1.07188e-02 -1.82096e-01  3.45146e-01
 -4.32198e-02  1.82562e-01  3.57321e-01
  6.47074e-02  1.76127e-01  2.40947e-01
 -1.41214e-01 -1.16728e-01  1.98764e-01
 -1.43775e-01  1.18936e-01  6.93451e-01
 -1.78614e-01  5.03544e-02  5.39795e-01
  2.56016e-01  1.99874e-01 -3.85189e-01
  1.75587e-01  6.17722e-02  4.51464e-01
 -3.44970e-02 -2.98680e-01 -4.95399e-01
 -4.19174e-01  2.06914e-02 -4.48028e-01
 -1.05279e-01 -3.30302e-02 -4.95399e-01
  1.11591e-01 -1.52045e-01  6.47252e-02
  1.63905e-01  2.81092e-02  9.88412e-01
  3.36848e-01  2.84692e-01 -4.60627e-01
  1.83833e-01 -1.88250e-01 -4.95399e-01
 -8.93779e-02  8.29661e-03  1.00000e+00
 -1.04592e-01  1.55198e-01  5.60760e-01
  2.35945e-01 -1.02787e-01 -4.95399e-01
  4.57461e-02 -1.46505e-02 -4.95399e-01
  3.08544e-01  4.07317e-02 -4.95399e-01
 -5.50414e-02  1.79290e-01  3.03537e-01
  3.70624e-01 -2.11735e-01 -4.95399e-01
 -1.67510e-01 -7.55933e-02  6.69709e-01
 -1.50036e-01  1.10725e-01  6.02983e-01
 -8.57303e-02  1.86303e-01 -1.25562e-01
 -1.34045e-02 -1.56105e-01 -4.95399e-01
  1.41851e-01 -1.16465e-01  6.92691e-01
 -1.84392e-01 -1.05868e-02  1.62241e-01
 -1.82518e-01 -2.67318e-02  8.72367e-01
 -1.60204e-01 -1.06519e-01 -1.48144e-01
 -1.55655e-01  4.08048e-01 -4.57479e-01
  1.52375e-01  3.09296e-01 -3.97731e-01
 -7.51262e-02  1.71703e-01  3.68010e-01
 -2.34735e-01  1.63149e-01 -3.60201e-01
 -5.79296e-03  1.87632e-01  1.84551e-01
 -1.57371e-01 -9.44081e-02  2.93967e-01
  1.57571e-01 -2.23494e-02  9.94773e-01
  1.38800e-01  1.39885e-01 -3.02085e-01
  8.45292e-02  1.87921e-01 -1.84003e-01
  2.81239e-02  1.85612e-01  7.68379e-01
 -2.73091e-02 -8.68639e-02 -4.95399e-01
  8.46048e-02 -1.82534e-01 -1.49883e-01
 -1.20624e-01 -1.70518e-01 -3.12557e-01
 -1.40403e-01  1.31368e-01 -5.02643e-02
 -2.84821e-01  2.04796e-01 -4.02350e-01
 -3.78170e-01 -2.52539e-01 -4.71898e-01
 -6.32932e-02  1.76494e-01  6.19490e-01
 -4.15735e-01  1.00919e-01 -4.95399e-01
  3.51763e-01  2.32261e-03 -4.03729e-01
 -1.71534e-01  7.16267e-02  2.54045e-01
  1.82247e-01  3.60382e-02  3.02074e-01
 -1.84806e-01 -2.03983e-03  8.89166e-01
  6.64581e-02 -2.03014e-01 -4.95399e-01
 -4.09884e-01 -1.25019e-01 -4.54351e-01
 -1.48689e-01 -4.06465e-01 -4.58161e-01
  4.37382e-01 -5.15083e-03 -4.59376e-01
  5.76314e-02 -1.73285e-01  6.50606e-01
  1.64068e-01  8.86923e-02  5.38887e-01
  1.38324e-01  1.25848e-01  8.45915e-01
  6.10881e-02 -2.81519e-01 -4.95399e-01
  2.31832e-01  2.14931e-01 -3.79458e-01
 -1.17251e-01 -2.65382e-01 -4.95399e-01
  1.74597e-01  6.46323e-02  4.25132e-01
 -2.57848e-02 -2.24333e-01 -9.01428e-02
 -4.13656e-01 -5.87989e-02 -4.95399e-01
  1.78055e-01  5.38705e-02  1.86499e-01
 -3.30702e-01 -6.16944e-02 -4.95399e-01
  3.96881e-01 -3.46279e-02 -4.95399e-01
  2.80231e-01  2.72298e-01 -4.95399e-01
 -1.79508e-01 -6.09087e-02 -5.46987e-02
  1.07882e-01 -1.47873e-01  7.90366e-01
  1.84983e-01  1.31820e-02  9.62933e-01
  4.24329e-01  7.40348e-02 -4.54727e-01
  2.89249e-01 -2.61746e-01 -4.29819e-01
 -1.19695e-01  1.43637e-01  6.39570e-01
 -8.14420e-02 -1.85281e-01 -2.84419e-01
 -8.87845e-02 -1.65923e-01  5.39559e-02
 -6.34405e-02 -3.52088e-01 -4.09478e-01
 -1.82648e-01  8.93850e-02 -1.52901e-01
 -3.09506e-01 -9.82769e-02 -3.86968e-01
 -3.66875e-01 -1.32556e-01 -4.95399e-01
  6.33347e-02  2.09115e-01 -1.27570e-01
 -6.08888e-02 -2.05834e-01 -2.61165e-01
 -1.86222e-01  4.24311e-02 -6.11535e-03
  2.42022e-01  1.94800e-01 -3.76001e-01
  2.26082e-02 -3.78203e-01 -4.95399e-01
 -8.87783e-02 -1.59622e-01  4.69100e-01
 -1.81464e-01  3.79772e-02  1.44203e-01
  3.67062e-02  4.54566e-01 -4.69856e-01
  1.48914e-01 -1.07521e-01  6.48972e-01
 -9.59977e-02 -1.55449e-01  7.86474e-01
 -3.56711e-01  2.87091e-01 -4.74322e-01
  1.72660e-01  6.98320e-02  7.91632e-01
 -3.31640e-01  3.03491e-01 -4.66304e-01
  1.77349e-01 -8.89383e-02 -4.95399e-01
  1.47865e-01  1.14235e-01  2.30466e-01
 -2.07664e-01 -5.90585e-02 -2.13459e-01
  5.91269e-02 -2.08012e-01 -1.06525e-01
 -9.50891e-02 -1.55998e-01  7.65894e-01
  2.69229e-01  4.06978e-02 -3.51869e-01
  1.67303e-01  2.71568e-01 -3.81028e-01
  5.44344e-02 -3.33718e-01 -4.95399e-01
 -4.49833e-01 -7.32192e-02 -4.90764e-01
 -6.70884e-02  4.40920e-01 -4.95399e-01
 -1.85305e-01 -4.12007e-02 -5.14192e-02
  8.75451e-02  1.65826e-01  2.58873e-01
 -1.83745e-01  2.29974e-02  8.96263e-01
  1.10673e-01 -1.45837e-01  2.04688e-01
 -2.52915e-01  1.42929e-02 -2.26508e-01
  1.64667e-01  9.90484e-02  5.28307e-02
 -1.93827e-02 -2.46398e-01 -1.40258e-01
 -3.16248e-01  2.62507e-01 -4.95399e-01
 -6.50240e-02 -1.70542e-01  8.55891e-01
  2.24314e-01 -1.89063e-01 -3.66951e-01
 -1.94218e-01 -1.90133e-01 -4.95399e-01
  1.02836e-01  4.33686e-01 -4.95399e-01
  2.68346e-01 -3.00780e-01 -4.95399e-01
 -1.19279e-01 -1.47443e-01 -1.92414e-01
 -1.74868e-01  3.83822e-01 -4.95399e-01
 -1.18050e-01 -1.48672e-01 -1.77585e-01
 -2.57075e-02 -1.80595e-01  3.36366e-01
  1.70827e-01 -6.90503e-02  5.02458e-01
  1.22061e-01  1.41955e-01  3.98951e-01
 -1.00210e-01 -1.66512e-01 -1.20242e-01
 -1.27916e-02 -1.81962e-01  7.34743e-01
 -1.62840e-01 -5.58069e-03  9.90766e-01
  1.80656e-01  4.37767e-02  5.41752e-01
  3.85584e-01 -3.89126e-02 -4.27144e-01
  6.20601e-02  1.77088e-01  3.04186e-01
  8.56298e-02 -1.61526e-01  8.44400e-01
  8.66113e-02 -3.62231e-01 -4.95399e-01
  8.25120e-02  1.68422e-01  3.92332e-01
  1.82938e-01 -2.67084e-02  8.96619e-02
 -1.72471e-01  1.53413e-01 -4.95399e-01
  1.40339e-01  3.37098e-01 -4.95399e-01
 -1.75775e-01 -5.46354e-02  8.24149e-01
  6.30023e-02  3.88602e-01 -4.29358e-01
 -7.57485e-02 -2.56076e-02  1.00000e+00
  2.05987e-01  6.64626e-02 -2.04125e-01
 -1.84864e-01  3.47202e-03  9.51262e-01
  1.85281e-01  1.97396e-03  1.01725e-01
 -8.92786e-02 -1.44252e-01 -4.95399e-01
  1.01946e-01  4.47564e-01 -4.86644e-01
 -2.52975e-02 -1.80653e-01  2.64921e-01
  3.16056e-02  8.17224e-02  1.00000e+00
 -7.17316e-02  1.73175e-01  7.01281e-01
 -2.98661e-01  8.38867e-02 -3.76555e-01
 -1.16878e-01 -8.92484e-02  1.00000e+00
 -1.44010e-01  1.28023e-01 -2.99305e-01
  2.82771e-01  2.70271e-01 -4.28162e-01
 -1.62983e-01 -8.46427e-02  9.50209e-01
 -1.68015e-01  7.98127e-02  4.52809e-01
 -1.41751e-01  1.21399e-01  9.65082e-01
 -9.03973e-02 -1.76325e-01 -1.85064e-01
  1.23372e-02 -1.82021e-01  5.92838e-01
  1.84852e-01  1.52643e-02  3.96929e-01
 -1.74889e-01 -7.27051e-02 -5.57775e-04
  8.93792e-02 -1.59520e-01  6.14634e-01
  3.22982e-01  1.38482e-01 -4.02841e-01
  1.18353e-01  1.45113e-01  7.81919e-01
 -1.29213e-01  1.34952e-01  8.82128e-01
 -3.01976e-01 -2.12831e-01 -4.16452e-01
 -1.36759e-01 -1.29964e-01 -1.54978e-01
  1.78545e-01 -4.68266e-02  8.76382e-01
 -8.50591e-02 -1.61606e-01  5.06587e-01
  3.86407e-02  8.78603e-02  1.00000e+00
 -3.91588e-01  1.00981e-01 -4.95399e-01
 -2.44326e-01 -5.88740e-02 -4.95399e-01
  1.79658e-01 -4.26234e-02  9.31035e-01
 -5.65270e-02 -1.73508e-01  5.38752e-01
 -3.42938e-01  3.03562e-01 -4.91854e-01
  3.22760e-01 -2.65172e-01 -4.47691e-01
 -6.00044e-02 -1.78212e-01 -1.98807e-02
 -6.18432e-02  1.82900e-01 -1.23842e-02
 -2.37977e-01  3.68222e-01 -4.95399e-01
 -1.57568e-01  1.14466e-01 -1.55603e-01
  3.61061e-02  3.07561e-01 -3.74802e-01
 -1.54353e-01 -1.08921e-01  3.24314e-02
 -1.20832e-01 -2.31840e-01 -3.46799e-01
 -1.84841e-01  5.68350e-03  6.17341e-01
  3.71674e-02  1.84002e-01  4.54994e-01
 -7.33472e-02  1.55204e-01 -4.95399e-01
  2.67178e-01 -2.72121e-01 -4.24222e-01
 -2.85305e-02 -2.38192e-01 -2.60808e-01
 -1.46130e-01  2.88986e-01 -3.84249e-01
  4.68306e-02  1.81761e-01  5.65241e-01
  6.69792e-02  1.81205e-01  7.32024e-02
  2.13927e-01  8.94015e-02 -3.25214e-01
  3.32555e-01 -1.83181e-01 -4.22704e-01
  1.85236e-01  6.78192e-03  1.87726e-01
 -9.23474e-02  1.62924e-01  8.53618e-01
 -6.88015e-02 -4.43782e-01 -4.95399e-01
  3.01466e-01 -7.35974e-02 -3.77235e-01
 -2.35552e-01 -3.11711e-02 -1.11448e-01
  9.99605e-03  1.87471e-01  5.19517e-01
 -1.85513e-01  8.65203e-02 -3.01994e-01
 -2.28145e-02 -1.86576e-01  1.39464e-02
  2.47553e-01 -3.33600e-01 -4.46508e-01
 -2.33244e-01 -3.34787e-02 -1.87005e-01
 -2.42149e-01 -1.75851e-01 -3.70898e-01
  3.02259e-02 -2.36913e-01 -2.13285e-01
 -2.94957e-01 -3.15808e-01 -4.95399e-01
  5.07247e-02 -2.16415e-01 -2.00958e-01
 -4.48561e-02  1.82159e-01  8.86638e-01
  1.09682e-01  4.45724e-01 -4.73557e-01
 -1.47814e-01  1.13750e-01  1.48493e-01
 -4.27553e-01  3.62666e-02 -4.54074e-01
 -1.37693e-01  1.34341e-01 -1.90291e-01
 -2.99605e-01  1.49964e-01 -4.95399e-01
  3.42860e-01 -3.23075e-02 -4.95399e-01
  3.63422e-01 -2.24713e-01 -4.53704e-01
  4.06338e-01  1.47045e-01 -4.95399e-01
 -2.13526e-01 -5.31969e-02 -1.35412e-01
  1.59878e-01  9.62393e-02  4.85423e-01
  2.25669e-02  6.19881e-02  1.00000e+00
  4.03054e-01  1.95245e-01 -4.95399e-01
  2.35552e-01 -3.36530e-01 -4.43525e-01
 -1.64065e-01  8.79012e-02  4.98578e-01
  5.54277e-02 -1.73989e-01  1.34914e-01
 -1.62347e-01  9.11329e-02  4.21750e-01
  2.50935e-01  2.91015e-02 -4.95399e-01
  3.61415e-01 -1.55724e-01 -4.31555e-01
 -7.88714e-02  1.93162e-01 -3.05016e-01
 -3.89431e-02  1.83541e-01  3.33814e-01
 -1.84829e-01  6.37067e-03  2.70024e-01
 -3.01970e-01 -7.75474e-04 -4.95399e-01
  1.00429e-01  7.02199e-02  1.00000e+00
 -1.13859e-01  1.58174e-01 -2.98718e-01
 -1.34010e-02  1.87228e-01  8.54681e-01
  6.69343e-02 -1.69972e-01  5.71231e-01
 -7.47284e-02  4.97956e-03 -4.95399e-01
 -6.69382e-02  1.42245e-01 -4.95399e-01
 -1.80500e-01  4.26177e-02  1.54123e-01
 -2.02118e-01 -1.76112e-01 -3.50759e-01
 -4.33278e-01 -5.84466e-02 -4.95399e-01
  1.66279e-01  3.60500e-01 -4.95399e-01
 -2.21358e-01 -4.53647e-02 -1.74655e-01
  1.80531e-01 -3.90099e-02  5.62055e-01
  7.20195e-02 -1.59726e-01  9.76553e-01
 -7.61645e-02  2.37441e-02 -4.95399e-01
  1.42986e-01 -1.15103e-01  7.68523e-01
  1.89199e-01 -2.22652e-02  1.72415e-02
 -3.71134e-01 -1.21178e-01 -4.95399e-01
  1.82349e-01  3.54772e-02  1.30674e-01
 -2.60285e-01  1.00021e-01 -4.95399e-01
 -5.41655e-02  4.67510e-02  1.00000e+00
 -1.33680e-01 -2.67141e-01 -4.95399e-01
 -6.15218e-02 -2.05201e-01 -2.91738e-01
 -1.88117e-01  8.62499e-02 -3.09233e-01
 -3.79257e-02  1.83758e-01  7.71916e-01
 -2.62316e-01 -2.27762e-01 -4.95399e-01
  1.77348e-01 -5.09537e-02  3.99470e-01
  3.72266e-02  1.89653e-01  4.61333e-02
 -3.24500e-01  2.71415e-01 -4.49155e-01
 -1.68156e-01  2.30399e-01 -3.59352e-01
  5.48876e-02  1.77155e-01 -4.95399e-01
 -1.54216e-01  1.04663e-01  9.56294e-01
 -8.81869e-02 -1.59945e-01  6.62196e-01
  2.24232e-01  4.82184e-02 -1.19855e-01
 -2.99333e-01 -3.23770e-01 -4.63136e-01
  1.90834e-01  3.16582e-03  6.86422e-03
  4.31558e-01 -1.08081e-03 -4.95399e-01
 -1.04137e-01  1.55510e-01  6.85103e-01
  2.38051e-01 -1.93398e-01 -4.95399e-01
  2.69717e-02 -1.80473e-01  4.78544e-01
  4.13741e-01 -1.79625e-01 -4.68909e-01
  1.21091e-01 -1.51998e-01 -3.02900e-01
  1.29238e-03 -3.46801e-01 -4.02367e-01
 -1.84775e-01  8.45970e-03  5.83548e-01
  3.07726e-01 -2.12199e-01 -4.19045e-01
  2.89771e-01 -2.18340e-03 -3.63496e-01
 -4.22611e-02  3.96432e-01 -4.32631e-01
  6.88907e-02  1.74513e-01  1.11581e-01
  2.56218e-01  1.04175e-01 -4.95399e-01
  7.32150e-02 -1.83401e-02  1.00000e+00
 -3.52473e-01 -4.66956e-02 -4.95399e-01
  4.07805e-01  1.24722e-01 -4.95399e-01
 -1.92771e-01 -7.39519e-02 -1.98102e-01
  4.38087e-01  2.26569e-02 -4.60085e-01
  1.70617e-01  1.01833e-01 -2.00809e-01
 -6.31367e-02 -3.58083e-01 -4.95399e-01
  4.44078e-02 -4.51592e-01 -4.93090e-01
  1.11667e-01 -1.45093e-01  5.97734e-01
  5.35647e-02  1.36355e-01  1.00000e+00
  1.06405e-01 -3.23235e-01 -4.95399e-01
 -4.15811e-01  1.85746e-01 -4.70599e-01
  1.94703e-01  3.29771e-01 -4.95399e-01
  2.94933e-01  1.45603e-01 -4.95399e-01
  1.74139e-01 -1.01327e-01 -4.95399e-01
  1.34445e-01 -1.24753e-01  6.78723e-01
  4.47329e-02  1.82294e-01  2.51603e-01
 -2.39076e-01  3.07607e-01 -4.27152e-01
  1.84841e-01 -1.01125e-02  3.18521e-01
 -1.48430e-01  3.49892e-01 -4.20716e-01
 -2.01050e-01 -2.75551e-01 -3.98414e-01
  1.07361e-01  1.53555e-01  6.77990e-01
  5.58975e-02 -1.73841e-01  1.84603e-01
 -3.38008e-02 -1.79267e-01  5.99502e-01
 -1.38188e-01  1.33747e-01 -3.27657e-02
  3.24114e-02 -1.79596e-01  8.80839e-01
 -1.58301e-01 -8.77603e-02  9.71612e-01
 -3.12432e-01 -2.32207e-01 -4.95399e-01
 -1.50383e-01  1.95926e-01 -3.34539e-01
  2.10508e-01  2.40118e-01 -4.95399e-01
  1.50302e-01  1.10935e-01  5.08991e-01
  2.66559e-01 -1.82808e-01 -3.86198e-01
 -1.61673e-01  9.23595e-02  1.33630e-01
 -1.80297e-01  1.81915e-01 -3.40631e-01
 -1.73017e-01  6.78112e-02  9.08764e-01
  2.82250e-03 -1.82400e-01  2.75909e-01
  1.71711e-01 -6.69085e-02  5.00072e-01
 -1.75786e-01  9.62471e-02 -1.22822e-01
  1.14318e-01  1.48365e-01  1.58874e-01
  4.88284e-03  1.87670e-01  4.10116e-01
  1.51996e-01  1.08546e-01  6.29587e-01
  2.04996e-01 -1.05233e-01 -4.95399e-01
  2.55086e-01 -9.99166e-04 -3.26515e-01
 -1.73557e-01 -6.10484e-02  1.48514e-01
 -8.34681e-02  3.49514e-01 -4.07141e-01
 -3.32686e-01  1.35263e-01 -4.08131e-01
  2.42067e-01  2.42341e-01 -4.95399e-01
 -9.10313e-02 -4.44524e-01 -4.91975e-01
 -1.56951e-01 -9.50858e-02  3.39550e-01
 -1.58656e-01 -9.22905e-02  4.75263e-01
 -1.16919e-01  1.53054e-01 -5.87829e-02
 -1.03414e-01  1.56001e-01  4.14023e-01
  2.56830e-01  1.77031e-01 -3.76912e-01
 -1.59660e-01 -4.09172e-01 -4.95399e-01
 -1.59205e-01 -9.13647e-02  1.63155e-01
 -2.62275e-02  2.45806e-01 -1.97163e-01
  1.45011e-01 -1.12603e-01  1.43034e-01
 -2.26468e-01 -3.42836e-01 -4.43771e-01
 -2.63360e-01 -8.05803e-02 -4.95399e-01
  1.99855e-01 -2.61616e-01 -4.95399e-01
 -1.03495e-01  3.82093e-01 -4.95399e-01
 -1.01803e-02 -8.20345e-02  1.00000e+00
  1.72760e-01 -3.09879e-01 -4.95399e-01
 -2.49909e-01  3.84409e-01 -4.84369e-01
  7.55121e-02 -3.86849e-02  1.00000e+00
 -1.73541e-01  6.64014e-02  8.48344e-01
 -2.52898e-01 -2.27341e-01 -4.95399e-01
  8.42368e-02  3.39205e-01 -4.95399e-01
  3.02879e-01 -3.38936e-01 -4.74423e-01
 -1.66586e-01 -8.96385e-02  3.56259e-02
 -2.01089e-01 -6.56342e-02 -9.66454e-02
  1.33177e-01  1.31387e-01  8.23243e-01
  2.81690e-02 -4.48163e-01 -4.95399e-01
 -2.31892e-01 -3.82192e-01 -4.67283e-01
  1.94568e-01 -7.25710e-02 -2.29985e-01
 -7.89187e-02  2.80056e-01 -3.62758e-01
 -2.19443e-01  1.08920e-01 -4.95399e-01
  5.56521e-02  3.14760e-01 -3.81283e-01
 -1.83820e-01  2.23037e-02  9.68165e-01
  7.63799e-02  1.71328e-01  1.17666e-01
 -1.48674e-01 -1.07283e-01  1.25848e-01
  1.54775e-01  1.50542e-01 -4.95399e-01
  2.34829e-02 -2.43455e-01 -2.82346e-01
 -2.65515e-01 -2.70313e-01 -4.22816e-01
 -1.75498e-01  9.65350e-02 -2.45491e-01
 -1.41146e-01  1.22118e-01  9.43451e-01
 -3.08175e-01  2.72458e-01 -4.41520e-01
  1.85009e-01 -7.40849e-03  3.17839e-01
 -1.97536e-01  7.44977e-02 -1.08605e-01
 -4.31623e-02  4.45490e-01 -4.64382e-01
  1.36422e-01  1.27948e-01  2.20124e-01
 -2.26266e-02  1.86315e-01  1.59971e-01
  1.81216e-01  9.12341e-02 -1.41818e-01
  1.70750e-01  9.54703e-02 -4.95399e-01
  1.59045e-01  1.13405e-01 -2.57052e-01
 -8.01384e-02 -1.86584e-01 -2.26888e-01
 -1.03275e-01 -2.53560e-01 -3.54873e-01
 -6.72269e-02  2.87050e-01 -3.65235e-01
 -6.19227e-02  1.76989e-01  8.26220e-01
  4.15599e-01  1.48548e-01 -4.61339e-01
  2.26934e-01  6.77993e-02 -4.95399e-01
  9.49809e-03  1.87496e-01  1.16344e-01
 -1.82967e-01  2.91002e-02  6.92113e-01
 -2.29394e-01 -2.87343e-01 -4.95399e-01
 -2.24089e-01  3.65974e-02 -8.91849e-02
 -5.22116e-02 -1.74840e-01  8.97517e-01
  1.39633e-01  1.24365e-01  1.95135e-01
 -2.15362e-01  5.66715e-02 -2.20897e-01
  1.14719e-01  1.55055e-01  5.61548e-03
 -1.63675e-01  8.86482e-02  6.64627e-01
 -4.18825e-02 -1.83266e-01 -8.77136e-04
  1.71822e-01 -6.66359e-02  8.47258e-01
 -1.61911e-01 -8.66184e-02  3.47206e-01
 -2.04457e-01 -6.22660e-02 -1.05154e-01
 -1.26533e-01  1.45501e-01 -2.77489e-01
 -9.10805e-04 -4.78600e-02  1.00000e+00
  1.73440e-01 -6.24857e-02  1.86313e-01
 -1.22134e-01 -1.36214e-01  7.12400e-01
  1.79834e-01  4.72310e-02  8.82175e-02
  3.17181e-01 -2.66021e-01 -4.95399e-01
  2.67755e-01  3.87469e-02 -3.50747e-01
 -3.14311e-01 -5.48397e-02 -3.83062e-01
  8.62689e-02 -1.80870e-01 -1.78731e-01
  1.49729e-01 -1.06414e-01  9.52118e-01
 -1.38160e-01 -1.33167e-01 -4.95399e-01
  4.97453e-02  1.80977e-01  6.68692e-01
 -9.71828e-03  1.87463e-01  4.78776e-01
 -1.25370e-01  6.91186e-02  1.00000e+00
 -1.47846e-01  1.13707e-01  2.07496e-01
 -4.88470e-02 -1.75799e-01  5.04647e-01
  2.50095e-01  1.27354e-01 -3.56788e-01
  2.59498e-01 -5.88009e-02 -4.95399e-01
 -1.21845e-01  1.41779e-01  2.39238e-01
 -1.15055e-01 -2.93529e-01 -4.95399e-01
 -1.09754e-01 -1.46210e-01  2.54338e-01
  2.32757e-01  3.43664e-02 -9.37021e-02
 -9.00224e-02  1.82011e-01 -2.17540e-01
  3.25870e-01  5.07301e-02 -3.89205e-01
  4.56019e-01  1.55546e-02 -4.71552e-01
  2.39891e-01  3.25593e-02 -1.64474e-01
 -2.69639e-01  1.33679e-01 -4.95399e-01
  3.98192e-01 -1.03104e-01 -4.42850e-01
  1.17795e-01 -1.40263e-01  6.07494e-01
  2.57550e-02 -1.86251e-01 -3.05572e-03
 -1.81284e-01  3.88920e-02  2.84941e-01
 -1.94332e-01  1.86098e-01 -4.95399e-01
  1.31428e-01 -1.27858e-01  4.31957e-01
 -2.38832e-01  3.49107e-01 -4.48771e-01
 -1.01446e-01  1.57313e-01  6.83534e-01
 -7.48245e-02  1.71837e-01  4.01312e-01
  3.29388e-01 -1.40728e-01 -4.95399e-01
 -1.49520e-01 -1.06128e-01  7.11076e-01
  1.86238e-01 -3.19358e-01 -4.95399e-01
 -5.18395e-02  1.98466e-01 -7.52077e-02
 -8.67473e-02  1.85286e-01 -1.97778e-01
  1.85275e-01  4.27946e-03  1.59086e-01
  3.33549e-01 -3.09079e-01 -4.72492e-01
 -3.66554e-01 -9.13442e-02 -4.95399e-01
 -7.41952e-02  1.78162e-01  1.97260e-03
 -2.27126e-02  1.96937e-01 -4.95399e-01
  1.52351e-01 -1.14788e-01 -2.10287e-01
  1.74991e-01  6.35123e-02  3.03052e-01
 -3.81342e-01  1.16010e-02 -4.23276e-01
  1.91059e-02 -4.36543e-01 -4.95399e-01
 -2.79700e-02  1.85572e-01  4.52484e-01
  9.17936e-02 -1.58169e-01  4.67862e-01
 -1.66423e-01 -1.00300e-01 -2.68801e-01
  1.83753e-01  2.64027e-02  7.31118e-01
 -5.34364e-02 -4.44528e-02 -4.95399e-01
  2.83165e-01 -1.49042e-02 -4.95399e-01
 -1.97173e-01  2.81812e-01 -4.95399e-01
  1.64179e-01 -9.16643e-02  7.46293e-02
 -1.79470e-01  4.70212e-02  9.52038e-01
  2.79466e-01 -1.20302e-01 -4.95399e-01
  2.78436e-01  1.02072e-01 -3.67298e-01
 -1.96560e-01  7.54739e-02 -1.88073e-01
  4.13067e-01  1.23706e-01 -4.95399e-01
 -7.20348e-03 -1.82270e-01  9.31393e-01
  5.22625e-02  3.76071e-01 -4.20270e-01
  4.21802e-02  1.82907e-01  2.71838e-01
  1.10889e-01  2.20757e-01 -3.34257e-01
 -1.81037e-01 -3.47938e-02  4.92348e-01
  1.09846e-01 -1.46448e-01  7.93338e-01
 -3.52925e-02  1.84293e-01  9.35285e-01
 -1.88311e-01 -7.84121e-02 -2.18545e-01
 -7.64218e-02 -1.90301e-01 -2.20775e-01
 -9.05640e-02  1.63940e-01  2.50605e-01
  2.77499e-01  4.40157e-02 -4.95399e-01
 -4.54211e-01 -2.81883e-02 -4.71209e-01
  6.19227e-02  3.76356e-01 -4.95399e-01
 -1.61346e-01  2.49984e-01 -3.67272e-01
  1.82086e-01  3.69012e-02  4.81159e-01
  2.73373e-01  1.73530e-01 -3.84670e-01
 -2.96725e-02 -1.64926e-01  9.83994e-01
  1.79291e-01 -4.40538e-02  1.98675e-01
 -1.62940e-01 -3.07817e-01 -4.03192e-01
 -3.05894e-01 -2.22446e-01 -4.95399e-01
 -1.32300e-01  1.39695e-01  7.09884e-02
  1.80997e-01 -3.69400e-02  8.99643e-01
  3.31139e-01 -1.89148e-01 -4.23822e-01
 -1.56035e-01  1.01855e-01  7.03748e-01
 -2.51887e-01 -1.14766e-02 -2.01276e-01
  5.77956e-02  1.78542e-01  3.29061e-01
  8.18934e-02 -3.96187e-01 -4.39814e-01
 -1.31156e-01  4.39734e-01 -4.91364e-01
 -3.12217e-01  1.84608e-01 -4.95399e-01
 -8.09098e-02  3.06979e-02 -4.95399e-01
  2.29617e-01  1.21189e-01 -3.43118e-01
  2.45001e-01  1.68189e-01 -3.67331e-01
  4.32759e-01  1.19830e-01 -4.95399e-01
 -2.45174e-01 -3.32548e-01 -4.45203e-01
 -9.81751e-02  1.73858e-01 -1.44722e-01
  1.75434e-01  6.22251e-02  8.89538e-02
 -1.60901e-01 -9.57111e-02 -4.95399e-01
  2.09986e-01  1.18022e-01 -3.30900e-01
 -1.62795e-01 -8.49945e-02  6.81120e-01
 -1.00933e-01 -1.65789e-01 -3.02229e-01
  1.06551e-01  1.60863e-01 -1.20137e-02
  9.90607e-02  3.75662e-01 -4.95399e-01
  1.31010e-01 -4.27879e-02 -4.95399e-01
 -1.81068e-01 -3.20312e-01 -4.15943e-01
  1.94791e-01 -2.80557e-02 -4.95399e-01
 -1.01227e-01  3.30581e-01 -3.98339e-01
  3.41127e-02 -1.79287e-01  6.31231e-01
 -4.55776e-01  2.19547e-02 -4.91164e-01
  7.43134e-02  1.72246e-01  3.86513e-01
 -1.49157e-01  1.90384e-01 -3.31219e-01
  3.59645e-01 -1.33346e-01 -4.24998e-01
  6.40697e-02  1.76362e-01  7.04351e-01
  1.36127e-01 -1.22957e-01  8.12173e-01
  1.81733e-01 -3.34163e-02  7.45232e-01
 -1.89975e-01 -3.36298e-01 -4.27827e-01
 -1.75113e-02  1.85880e-01 -4.95399e-01
  1.98362e-01  7.40878e-02 -3.01201e-01
  3.36870e-02  4.40851e-01 -4.60823e-01
  6.01896e-02 -1.59246e-01  9.81537e-01
  7.74132e-02  1.70857e-01  3.12755e-01
 -2.63897e-01  2.31251e-02 -3.47452e-01
  5.76174e-02  1.52351e-01 -4.95399e-01
  1.89627e-01 -2.37549e-01 -4.95399e-01
 -4.99461e-02 -1.75493e-01  6.71217e-01
  9.84343e-02  1.59512e-01  7.25753e-01
  2.46767e-01  5.58544e-02 -4.95399e-01
 -1.34466e-01  1.37567e-01 -1.45245e-01
  7.37717e-02 -6.54240e-02 -4.95399e-01
  1.48547e-01 -1.18592e-01 -2.36982e-01
  2.60747e-02  1.85913e-01  5.49793e-01
  1.82306e-01  3.57153e-02  5.58211e-01
  9.65011e-02  1.60706e-01  4.73960e-01
  2.76605e-01 -3.18748e-01 -4.95399e-01
  4.32596e-02  2.29190e-01 -3.19526e-01
 -3.39200e-02  2.38113e-01 -2.77816e-01
 -4.66818e-02  1.48047e-01  1.00000e+00
  8.38291e-02  3.29600e-01 -3.94581e-01
  4.05653e-02 -1.77965e-01  8.81528e-01
  8.44003e-02 -1.62160e-01  2.16305e-01
  8.16119e-02 -1.63555e-01  1.13585e-01
  1.88571e-01 -2.66373e-02  3.66211e-02
 -1.03077e-01 -1.63646e-01 -1.09657e-01
 -1.41300e-01  1.30733e-01 -1.14929e-01
  3.73662e-01  1.96791e-01 -4.48761e-01
  1.24368e-01 -1.34592e-01  1.39261e-01
  1.50713e-01 -1.05052e-01  5.37229e-01
  1.66343e-01 -7.89026e-02  3.06722e-01
 -1.25671e-01 -1.33017e-01  8.03534e-02
  3.15611e-02  1.85055e-01  2.61268e-01
  5.36561e-02  2.63238e-01 -3.48174e-01
 -6.74658e-02 -1.69602e-01  2.75201e-01
  1.82534e-01 -2.81588e-01 -4.95399e-01
  6.65531e-02 -3.22259e-01 -4.95399e-01
  4.03719e-01  2.15900e-01 -4.85654e-01
 -1.93382e-01  7.86518e-02 -2.50278e-01
  2.23200e-01  4.21080e-02 -4.95399e-01
  6.23553e-02 -3.10059e-01 -4.95399e-01
  1.27251e-03 -1.82416e-01  4.09803e-01
 -7.01218e-03  8.61899e-02  1.00000e+00
  7.10146e-02  1.73649e-01  5.09841e-01
 -2.98442e-01 -2.46594e-01 -4.95399e-01
 -6.01766e-02 -1.72291e-01  5.83627e-01
  4.25275e-01 -1.02442e-01 -4.95399e-01
  3.73973e-01 -1.84902e-01 -4.95399e-01
 -3.48081e-01 -7.39577e-02 -4.07015e-01
  2.51128e-02 -2.98371e-02 -4.95399e-01
 -1.64730e-01 -8.12965e-02  4.28336e-01
  1.77778e-01 -4.95130e-02  2.23994e-01
 -6.36138e-02  3.65299e-01 -4.14549e-01
  1.82428e-02  1.86849e-01  7.37985e-01
  2.11947e-01 -1.01867e-02 -4.95399e-01
  2.06571e-01 -6.05681e-02 -3.06180e-01
  3.96992e-01 -1.74879e-01 -4.57717e-01
 -1.63016e-01  8.98916e-02  6.12067e-01
  2.55257e-01  5.33025e-04 -1.43406e-01
  1.26080e-01  1.38334e-01  2.93392e-01
 -1.95531e-01 -3.88841e-01 -4.95399e-01
  1.42464e-01  2.01969e-01 -4.95399e-01
 -1.67411e-01  2.85401e-01 -4.95399e-01
  1.78045e-01  5.39059e-02  4.73024e-01
  5.67551e-02 -2.10384e-01 -1.23900e-01
 -3.76128e-01  1.06730e-01 -4.95399e-01
  1.21999e-01 -1.36698e-01  6.27613e-01
  1.32610e-01 -2.78638e-01 -3.77324e-01
 -3.30675e-01  8.76693e-02 -3.97283e-01
 -4.26996e-01  1.05188e-01 -4.60735e-01
  1.51195e-01 -1.04375e-01  2.53654e-01
  1.97790e-01  7.46602e-02 -2.81496e-01
  1.72695e-02  4.50429e-01 -4.95399e-01
 -3.46499e-01 -5.70400e-02 -4.95399e-01
  1.16911e-01 -1.40986e-01  7.65610e-01
 -1.80069e-01 -3.92061e-02  3.71522e-01
 -2.50891e-01 -1.35208e-02 -1.98240e-01
  1.36996e-01  1.27321e-01  7.12079e-01
 -8.05623e-03  2.56736e-01 -2.49202e-01
  1.55256e-01  1.03713e-01  2.79205e-01
 -2.33316e-01 -2.47927e-01 -4.95399e-01
  3.63584e-01 -1.95369e-01 -4.44171e-01
  2.96205e-02 -1.25230e-01  1.00000e+00
 -3.88713e-01 -1.14946e-01 -4.39289e-01
  4.09414e-01  1.22795e-01 -4.52384e-01
 -2.50073e-01 -1.48933e-02 -1.40118e-01
 -8.96083e-02 -2.55930e-01 -3.53195e-01
 -1.28179e-01 -1.27106e-01  9.71675e-01
 -2.13172e-02 -1.81163e-01  5.23510e-01
 -3.06352e-01  4.67247e-02 -4.95399e-01
 -2.57078e-01  1.51080e-01 -3.68319e-01
 -3.27400e-01  2.85632e-01 -4.95399e-01
 -7.71167e-02 -1.65491e-01  9.59252e-01
  7.49825e-02  1.71952e-01  6.37068e-01
  1.21874e-01 -1.36808e-01  8.56226e-01
 -4.29913e-02  1.88322e-01 -2.99162e-02
  3.35849e-01  2.90268e-01 -4.62473e-01
  1.82306e-01 -3.04055e-02  7.70712e-01
  2.36234e-01 -1.40959e-01 -3.54848e-01
  1.57761e-01  9.97620e-02  6.07415e-01
  3.41978e-01  3.75292e-02 -3.98526e-01
 -1.01873e-01  3.57327e-01 -4.95399e-01
  2.64223e-01  2.92114e-01 -4.29850e-01
  1.10987e-01 -2.78451e-01 -3.71643e-01
 -1.03940e-01 -1.50334e-01  5.97651e-01
 -1.36238e-02 -2.01190e-01 -4.95399e-01
 -7.95264e-02 -1.87196e-01 -2.43898e-01
 -1.32086e-01  1.39948e-01 -2.17280e-01
 -4.29631e-01  1.00273e-01 -4.61675e-01
  1.47548e-01 -1.09342e-01  4.07487e-01
  3.41427e-01  2.17573e-01 -4.95399e-01
 -7.65637e-02 -5.62354e-02  1.00000e+00
  1.11391e-01 -3.48247e-01 -4.95399e-01
  2.05268e-01  1.34196e-01 -4.95399e-01
  4.62533e-02  2.26197e-01 -2.23060e-01
  1.68984e-01 -8.59631e-02 -3.95464e-02
  1.26673e-01  1.45777e-01 -9.69352e-02
 -1.46295e-01  1.15744e-01  7.12988e-01
 -3.41324e-02  1.63832e-01 -4.95399e-01
 -2.80683e-01  1.93537e-01 -4.95399e-01
  2.55351e-01  1.98904e-03 -2.78834e-01
  1.53826e-01  1.05874e-01  4.89561e-01
 -1.14811e-01 -1.42338e-01  2.24867e-01
  4.51750e-01 -6.37111e-02 -4.91406e-01
  6.55025e-02 -3.08730e-01 -3.82040e-01
  2.09116e-01 -8.66177e-02 -4.95399e-01
 -3.39377e-01  2.59949e-01 -4.95399e-01
 -2.30382e-01  2.23597e-01 -3.82817e-01
  2.42834e-01 -3.57299e-01 -4.57328e-01
  1.63811e-01  1.08639e-01 -2.80250e-01
 -2.62806e-01  6.99829e-02 -4.95399e-01
 -8.41482e-02  1.67387e-01  4.52826e-01
 -7.36296e-02  2.47801e-01 -3.41690e-01
  5.28372e-02 -1.74778e-01  2.95272e-01
 -1.82278e-01 -5.24564e-02 -6.59812e-03
 -1.04130e-01  1.55515e-01  8.17451e-01
  2.42803e-01  2.96468e-02 -1.79040e-01
 -1.82665e-01 -2.58045e-02  7.35027e-01
  3.93303e-01 -1.39741e-01 -4.95399e-01
  2.46394e-02 -1.86399e-01 -5.57855e-02
 -1.22864e-01  1.49170e-01 -8.06886e-02
 -1.38078e-02 -2.92829e-01 -4.95399e-01
 -1.20859e-01 -1.37327e-01  8.83584e-01
  5.46073e-02 -4.27713e-01 -4.57135e-01
  1.90804e-01 -7.63352e-02 -1.82063e-01
 -1.47050e-01 -1.09450e-01  3.75407e-01
  2.95581e-02 -1.80077e-01  3.47433e-01
  2.76829e-01  1.48334e-01 -4.95399e-01
 -2.17525e-01  1.92461e-01 -3.63007e-01
 -8.85303e-02 -4.13321e-01 -4.51643e-01
 -1.73297e-01 -6.17514e-02  3.90340e-01
 -1.14844e-01 -3.14778e-01 -3.94692e-01
 -1.23705e-01  1.40126e-01  7.95071e-01
  1.85069e-01  1.15342e-02  2.02453e-01
 -2.49358e-01 -3.12866e-01 -4.95399e-01
  1.47554e-01 -4.21487e-01 -4.95399e-01
  1.70569e-01 -6.96607e-02  4.81069e-01
  4.16835e-01  9.62015e-02 -4.95399e-01
 -2.62480e-01  1.89950e-01 -3.84939e-01
  1.66717e-01  3.84009e-01 -4.45658e-01
 -2.96759e-01  1.88777e-01 -4.95399e-01
 -2.66663e-01  1.78591e-01 -3.83007e-01
 -1.91471e-01  8.05630e-02 -9.93638e-02
 -5.39713e-02 -1.24639e-01 -4.95399e-01
  1.07978e-01 -1.59161e-01 -1.85094e-01
 -1.83724e-01 -1.78687e-02  2.41767e-01
  1.79530e-01 -4.31293e-02  4.47318e-01
 -1.28781e-01 -1.37702e-01  5.79514e-02
 -7.37331e-02 -1.92990e-01 -1.91897e-01
  1.37380e-01 -4.32636e-01 -4.80827e-01
  1.06160e-01  1.54401e-01  8.04518e-01
  2.80900e-02 -2.39049e-01 -2.62499e-01
  1.60763e-01 -3.11011e-01 -4.95399e-01
  2.25886e-01 -4.12536e-02 -1.67758e-01
 -1.53556e-01  1.05655e-01  8.40459e-01
  2.28229e-01  3.39430e-01 -4.95399e-01
  1.60050e-01 -1.07089e-01 -1.05867e-01
  2.05905e-01 -6.12344e-02 -1.73519e-01
  6.14593e-02  4.36523e-01 -4.59977e-01
 -1.41926e-02  3.35094e-01 -3.91517e-01
  2.55247e-01  3.70894e-03 -1.14185e-01
  1.99152e-01 -6.14748e-02 -4.95399e-01
  1.75135e-01 -5.77849e-02  5.09801e-01
  4.69228e-02  1.81737e-01  7.79657e-01
  1.34747e-01  1.37703e-01 -1.42939e-01
  1.77901e-01 -4.90911e-02  1.52674e-01
  1.61770e-01  3.20331e-01 -4.95399e-01
  1.33734e-01 -3.64020e-01 -4.95399e-01
 -1.75328e-01  1.89936e-01 -3.42119e-01
  1.18471e-01  1.45015e-01  8.67598e-02
 -5.41545e-02  1.79565e-01  4.59888e-01
  8.50418e-02  2.33414e-01 -4.95399e-01
 -1.15737e-01 -1.41598e-01  6.75478e-01
 -1.07407e-01  2.42091e-01 -4.95399e-01
  1.47402e-01  1.25048e-01 -1.93705e-01
 -4.82939e-02 -3.56261e-01 -4.95399e-01
 -1.95741e-02 -4.38654e-01 -4.95399e-01
  1.78925e-01 -4.54360e-02  8.63315e-01
  4.86181e-02  1.81286e-01  9.33876e-01
  1.21294e-02  1.87345e-01  9.50726e-01
  2.10989e-01 -5.61499e-02 -2.37116e-01
  1.18823e-01  2.99071e-01 -3.82761e-01
 -1.08588e-01 -1.47064e-01  1.71876e-01
  2.41268e-01 -2.62703e-01 -4.95399e-01
 -1.76937e-01  5.62472e-02  7.16839e-01
  2.41137e-01  5.00423e-02 -4.95399e-01
 -1.32372e-01 -1.40961e-01 -4.95399e-01
 -1.15638e-01 -8.12759e-02 -4.95399e-01
 -1.21117e-01  1.50917e-01 -2.13250e-01
 -1.27024e-01  1.45009e-01 -2.53631e-01
 -1.89175e-01 -1.03477e-01 -4.95399e-01
  1.80741e-01 -3.80918e-02  8.25310e-01
 -3.83623e-01  1.68372e-02 -4.95399e-01
  1.85237e-01 -1.46137e-03  7.64019e-01
  4.88643e-02  1.53964e-01  9.95207e-01
  1.34955e-01  4.01897e-01 -4.95399e-01
 -5.33497e-03 -4.00144e-01 -4.95399e-01
  2.80244e-01  2.29068e-01 -4.95399e-01
  4.40340e-01 -2.91648e-02 -4.61997e-01
 -1.65996e-01  8.40711e-02  3.24092e-01
 -1.53368e-01  3.09469e-01 -4.95399e-01
 -1.97537e-01  7.44970e-02 -3.03099e-01
  1.48657e-02 -2.50043e-01 -3.39806e-01
  1.84275e-01 -4.02154e-01 -4.64213e-01
  1.11845e-01  1.50269e-01  4.24011e-01
 -1.82366e-01  3.29741e-02  2.81471e-01
  3.96394e-01 -2.23909e-01 -4.85476e-01
  1.85003e-01  1.28287e-02  6.24251e-01
  2.77880e-01 -1.92516e-01 -3.95836e-01
 -1.00681e-01 -1.98166e-01 -3.21374e-01
 -1.27104e-01 -1.39225e-01  6.92493e-02
 -1.23133e-01 -1.35328e-01  2.41339e-01
  3.30123e-01 -2.50508e-01 -4.45485e-01
  1.30292e-01 -1.28991e-01  1.61121e-01
  1.88788e-01 -2.52010e-02  1.03239e-02
 -9.25846e-02 -1.57476e-01  4.49161e-01
  7.61891e-02  1.71414e-01  7.17788e-01
 -3.91935e-01 -6.98826e-02 -4.95399e-01
 -1.44633e-01 -3.06090e-01 -4.95399e-01
  2.25769e-01  4.66811e-02 -1.21075e-01
 -3.80001e-01 -1.45120e-02 -4.95399e-01
  8.16546e-03  2.84942e-01 -3.58818e-01
 -1.63217e-01 -3.27648e-01 -4.14747e-01
 -3.97747e-01  2.26096e-01 -4.82495e-01
  1.22119e-02  1.92903e-01 -2.56236e-02
 -1.84817e-01  6.92766e-03  8.54054e-01
  2.62866e-01 -3.77668e-02 -4.95399e-01
  3.10107e-01 -3.21197e-01 -4.66516e-01
  2.42680e-02 -6.44428e-02 -4.95399e-01
  4.49518e-02  1.82239e-01  7.98642e-01
  2.40296e-01 -2.68430e-02 -1.18123e-01
  2.83421e-01  2.15299e-01 -4.05418e-01
  2.89723e-01 -1.98683e-01 -4.04435e-01
 -3.04123e-01  3.12708e-03 -3.73061e-01
  6.39066e-02 -2.03233e-01 -2.42749e-01
 -3.15782e-01  3.18707e-01 -4.65660e-01
  1.29053e-01  1.99573e-01 -4.95399e-01
  4.74383e-02 -4.45591e-01 -4.68132e-01
  1.84361e-01 -1.57919e-02  1.10017e-01
  1.27644e-01  8.32078e-02  1.00000e+00
  1.50647e-01 -1.05143e-01  5.97813e-01
 -3.94993e-01  2.30932e-01 -4.75211e-01
 -7.03055e-02  6.50113e-02 -4.95399e-01
  3.85734e-01 -2.25267e-01 -4.66270e-01
  1.07589e-01 -8.09751e-02 -4.95399e-01
 -7.93220e-02 -1.64459e-01  2.89094e-01
 -8.22784e-02  1.68331e-01  1.68309e-01
 -1.60094e-01 -2.63725e-01 -3.77323e-01
  4.35374e-02  1.82586e-01  5.20733e-01
 -3.00144e-01  1.34385e-01 -3.88412e-01
 -1.86262e-01 -3.69342e-02  2.86960e-02
 -1.80978e-01  4.03918e-02  6.47321e-01
 -1.60717e-02 -4.13529e-01 -4.45906e-01
 -8.67602e-03 -2.51240e-01 -2.81440e-01
 -1.66849e-01  8.23066e-02  7.12534e-01
  1.85159e-01  9.40041e-03  4.86506e-01
 -5.46479e-02 -3.45698e-01 -4.04437e-01
 -1.00020e-01 -1.59495e-01  5.64386e-02
 -1.79979e-01 -3.95958e-02  2.62729e-01
  4.54879e-01 -2.78867e-02 -4.95399e-01
 -3.85205e-01  1.68725e-01 -4.47963e-01
  2.46697e-03  1.33009e-01  1.00000e+00
  2.48322e-01 -2.98973e-01 -4.29061e-01
 -1.43234e-01 -1.23489e-01 -8.53681e-02
  3.11716e-02  3.46487e-01 -3.99617e-01
 -4.17647e-02  2.30269e-01 -1.02590e-01
  3.64673e-02  1.89802e-01 -5.91313e-02
 -1.58275e-01 -1.08447e-01 -1.25422e-01
  1.39777e-01 -1.28628e-01 -4.95399e-01
 -5.79375e-02 -1.73048e-01  9.43522e-01
 -1.28360e-01  1.40383e-01 -4.95399e-01
 -7.45797e-02 -1.66635e-01  7.00550e-01
  3.19672e-02 -2.35172e-01 -3.28999e-01
 -2.51183e-01  9.02631e-02 -3.48311e-01
  2.19563e-01  5.28873e-02 -2.37038e-01
  2.64551e-01 -3.61917e-01 -4.95399e-01
  6.81023e-02 -1.69516e-01  4.00774e-01
  1.62339e-01 -8.65974e-02  3.96508e-01
  2.28509e-01  4.74912e-02 -4.95399e-01
  8.18550e-02 -1.63436e-01  8.07691e-01
  3.37842e-01  2.77791e-01 -4.95399e-01
 -6.47569e-02 -2.24788e-01 -3.29037e-01
  1.71301e-01  7.32215e-02  6.76723e-01
  2.57184e-01  3.38204e-01 -4.49896e-01
 -1.83990e-01  2.06396e-02  7.50767e-01
 -2.51564e-01 -1.62959e-02 -4.95399e-01
  3.24066e-01  1.39848e-02 -4.95399e-01
 -1.99861e-01  1.10957e-01 -4.95399e-01
 -9.04014e-02 -2.00515e-02  1.00000e+00
 -1.15010e-01 -1.10622e-01  9.92642e-01
  1.31325e-01 -1.27962e-01  1.34289e-01
 -2.19934e-01 -3.54493e-01 -4.47882e-01
 -7.41399e-02 -1.40788e-01 -4.95399e-01
  6.45894e-02  2.19999e-01 -4.95399e-01
 -1.87164e-01 -2.49933e-01 -4.95399e-01
  1.83884e-01 -8.32550e-02 -2.31012e-01
 -8.32444e-03  1.87533e-01  6.20903e-01
  1.84500e-01 -4.60765e-02  5.68846e-02
  1.85163e-01 -3.98542e-03  7.37857e-01
  1.06711e-01 -1.89848e-01 -4.95399e-01
  4.16387e-01 -1.69351e-01 -4.95399e-01
  1.46553e-01  1.24810e-01  7.19676e-02
 -1.84788e-01  8.02737e-03  6.52977e-01
  4.30690e-01  4.76491e-02 -4.95399e-01
 -3.45534e-02  2.95840e-01 -3.67156e-01
 -1.84601e-01 -7.24389e-03  2.55570e-01
 -1.70289e-01 -5.12868e-02 -4.95399e-01
  1.82567e-01 -2.89325e-02  9.51604e-01
  1.79666e-01 -4.25939e-02  8.63332e-01
  7.92349e-02  1.70009e-01  2.18336e-01
  1.20035e-01 -2.38560e-01 -4.95399e-01
  1.56972e-01  1.01029e-01  6.07615e-01
 -1.84542e-01  1.36012e-02  8.11870e-01
 -1.67481e-01  8.09681e-02  2.08123e-01
 -1.37251e-01 -1.21270e-01  6.72208e-01
 -2.02568e-01 -2.03152e-02 -4.95399e-01
 -1.97050e-01 -2.14995e-01 -4.95399e-01
 -5.02653e-02  4.56249e-01 -4.82193e-01
 -3.48985e-01 -1.22494e-02 -4.95399e-01
 -1.84830e-01  6.29132e-03  8.62158e-01
  2.79898e-01 -2.07851e-02 -3.57695e-01
  1.68875e-01  1.04494e-01 -3.03377e-01
  7.66165e-02  3.66144e-02 -4.95399e-01
  1.00357e-01  2.59455e-01 -4.95399e-01
  5.75015e-02  1.78638e-01  1.20238e-01
  2.61036e-01  2.27662e-01 -3.99127e-01
 -1.83321e-01 -2.12059e-02  8.62751e-01
 -2.31102e-01 -3.29817e-01 -4.95399e-01
  5.74690e-02 -1.73338e-01  2.79208e-01
  1.48911e-01 -2.25351e-01 -3.52203e-01
 -1.73213e-01 -7.64867e-02  7.42470e-02
