# .PCD v0.7 - Point Cloud Data file format
VERSION 0.7
FIELDS x y z
SIZE 4 4 4
TYPE F F F
COUNT 1 1 1
WIDTH 1443
HEIGHT 1
VIEWPOINT 0 0 0 1 0 0 0
POINTS 1443
DATA ascii
0.70456386 -1.4945192 0.03376025
0.70459235 -1.4255195 0.035737026
0.70457757 -1.3565418 0.037785105
0.70451415 -1.2875333 0.039967433
0.70441306 -1.2184653 0.042294025
0.704292 -1.1493403 0.044712193
0.70416707 -1.0801785 0.047132883
0.70404863 -1.0110031 0.049463682
0.70394027 -0.94183093 0.051630884
0.70383984 -0.87266922 0.053588789
0.70374143 -0.80351788 0.055320121
0.70363742 -0.73437285 0.056831583
0.70352042 -0.66522813 0.058148019
0.70338404 -0.59607697 0.059306156
0.70322317 -0.52691299 0.060347661
0.70303476 -0.45773 0.061311219
0.70281816 -0.38852218 0.062225275
0.70257521 -0.31928372 0.063103847
0.70230919 -0.25000888 0.063946657
0.70202488 -0.18069212 0.064743511
0.70172727 -0.11132886 0.065480508
0.70142108 -0.041916244 0.066146024
0.70111096 0.027546145 0.066735536
0.7008096 0.097049579 0.067276068
0.70050615 0.16660838 0.067729339
0.70020384 0.23621862 0.068105273
0.69990683 0.30587268 0.068421848
0.69961935 0.37556076 0.06870164
0.69934464 0.44527215 0.068967953
0.6990841 0.51499665 0.069241114
0.69883633 0.58472562 0.069535524
0.69859684 0.65445155 0.069858044
0.6983586 0.72416747 0.070207842
0.69811231 0.7938661 0.070577681
0.69784856 0.86354005 0.070956133
0.69755852 0.9331826 0.071330115
0.697236 1.002789 0.07168708
0.69687897 1.0723596 0.07201656
0.6964891 1.1419009 0.072311066
0.69607276 1.2114271 0.072566085
0.69564015 1.2809596 0.07277967
0.69520545 1.3505245 0.072951205
0.69478542 1.4201498 0.073079653
0.69439787 1.4898621 0.073161654
0.69405925 1.5596811 0.073190361
0.69378006 1.6296165 0.073156014
0.69356221 1.6996655 0.073048465
0.69339824 1.7698113 0.072860792
0.69327235 1.8400218 0.072591625
0.69316584 1.9102505 0.072244525
0.69306397 1.9804418 0.071822405
0.69296455 2.0505416 0.071317509
0.69288379 2.1205134 0.07069996
0.69285512 2.1903431 0.069912441
0.69291914 2.2600334 0.068875991
0.69310933 2.3295946 0.067506827
0.69344646 2.3990324 0.06573379
0.6939373 2.4683506 0.063502789
0.69457912 2.5375521 0.060778439
0.69536376 2.6066406 0.05753589
0.6962797 2.6756268 0.053751938
0.69731194 2.7445223 0.04941269
0.69844347 2.8133521 0.04449207
0.69964647 2.8821385 0.039028201
0.70088506 2.9508927 0.033154707
0.7981776 -2.8805163 2.8159646e-05
0.79821479 -2.8111515 0.00016764969
0.79828304 -2.7418394 0.00036343405
0.79838473 -2.6725836 0.00061899982
0.79852104 -2.6033864 0.00093904941
0.79869086 -2.5342691 0.0014223579
0.79884857 -2.4652123 0.002337357
0.79890895 -2.396126 0.0039451765
0.79888916 -2.3269529 0.0059478204
0.79882663 -2.2576959 0.0080550434
0.79873478 -2.1883729 0.010144574
0.79863334 -2.1190128 0.012148121
0.79855651 -2.0496097 0.01417594
0.79859906 -1.9800903 0.016581707
0.79859942 -1.9104686 0.019133108
0.79856104 -1.8408365 0.021624673
0.79851925 -1.7712591 0.023996718
0.79849708 -1.7017784 0.026240095
0.79850751 -1.6324257 0.028347986
0.79854709 -1.5632114 0.030339574
0.79859924 -1.4941316 0.032252733
0.79864019 -1.4251571 0.034134511
0.79864782 -1.3562344 0.036054011
0.79860997 -1.2872988 0.038091965
0.79852903 -1.2183033 0.040290818
0.79841727 -1.1492363 0.04262358
0.79828846 -1.0801127 0.0450105
0.7981531 -1.0109564 0.04735589
0.79801631 -0.94178712 0.049577571
0.79787886 -0.87261599 0.051621173
0.79773867 -0.80344695 0.053462259
0.79759306 -0.73428029 0.055101536
0.7974391 -0.66511494 0.056558281
0.79727393 -0.59594917 0.057864003
0.79709458 -0.52678055 0.059055865
0.7968986 -0.45760521 0.060169019
0.7966845 -0.38841754 0.061229136
0.79645211 -0.31921026 0.062247664
0.79620248 -0.24997476 0.063221671
0.79593706 -0.18070203 0.064138144
0.79565805 -0.11138412 0.064980902
0.79536724 -0.042015474 0.065737128
0.79506725 0.027406076 0.066402197
0.79477185 0.096866988 0.067010053
0.79416376 0.23596579 0.06793195
0.79385853 0.3055917 0.06827841
0.79355907 0.37525564 0.068579949
0.79326993 0.44494647 0.068861708
0.7929939 0.5146541 0.069145106
0.79273093 0.58437002 0.069445051
0.79247743 0.65408736 0.0697686
0.7922262 0.72379935 0.070115343
0.79196781 0.79349869 0.070479088
0.79169178 0.86317664 0.070850283
0.79138815 0.93282485 0.071218304
0.7910502 1.002437 0.071573228
0.79067516 1.0720127 0.071906924
0.7902649 1.1415592 0.072213441
0.78982633 1.2110928 0.07248906
0.78937113 1.2806377 0.072731584
0.78891516 1.3502238 0.072939001
0.78847742 1.4198816 0.073107511
0.78807783 1.4896392 0.073229685
0.78773409 1.5595167 0.073294021
0.78745651 1.6295226 0.073286735
0.78724539 1.6996523 0.073195584
0.78708917 1.7698852 0.073014103
0.78696811 1.8401846 0.072743408
0.78685868 1.9104972 0.072389737
0.78674436 1.9807596 0.071956351
0.78662479 2.0509138 0.071430758
0.78652281 2.1209228 0.070772335
0.78647959 2.1907766 0.069909699
0.78654033 2.2604814 0.068754226
0.78674018 2.3300474 0.06722182
0.78709835 2.399482 0.065245226
0.78761959 2.4687872 0.062779337
0.78830004 2.5379684 0.059794378
0.7891295 2.6070304 0.056267019
0.79009444 2.6759858 0.052181426
0.79117745 2.7448471 0.04754436
0.79236042 2.8136337 0.042357627
0.79361439 2.882364 0.03668987
0.89209819 -2.8804748 5.5613975e-05
0.89212447 -2.8110912 0.0001851983
0.8921805 -2.7417581 0.00036713062
0.89226872 -2.6724792 0.00060441135
0.89239901 -2.6033025 0.0010044576
0.89256603 -2.5342431 0.0017018995
0.89272082 -2.4652119 0.0027536384
0.89282161 -2.3961234 0.0041216072
0.89285958 -2.3269455 0.0057385801
0.89285427 -2.2576988 0.0075299516
0.89281112 -2.1883926 0.0094121182
0.89274842 -2.1190445 0.011300779
0.8926847 -2.0496447 0.01323024
0.89268965 -1.9800984 0.015444991
0.89267683 -1.9104106 0.017888825
0.89263755 -1.8407027 0.020322032
0.89260089 -1.7710552 0.022654323
0.89257938 -1.701511 0.024866715
0.89258212 -1.6321036 0.026945898
0.89260709 -1.5628462 0.028905643
0.89264458 -1.4937426 0.030771457
0.89267647 -1.4247729 0.032576203
0.89268404 -1.3558893 0.034376983
0.8926537 -1.2870212 0.036261011
0.89258188 -1.2181034 0.038301971
0.89247471 -1.1491053 0.040508147
0.89234179 -1.0800315 0.042820022
0.89219189 -1.0109042 0.045145545
0.8920303 -0.94174576 0.047396507
0.89185935 -0.87257093 0.049509421
0.89168066 -0.80338824 0.051451158
0.89149618 -0.73420233 0.053215057
0.89130753 -0.66501743 0.054813825
0.89111543 -0.59583706 0.05627292
0.89091951 -0.52666318 0.05762409
0.89071751 -0.45749462 0.058898013
0.8905074 -0.38832647 0.060116664
0.89028722 -0.31914997 0.061288193
0.8900553 -0.24995354 0.062406581
0.88981038 -0.18072464 0.063456029
0.88955122 -0.11145175 0.064418115
0.88658959 0.5839873 0.069448404
0.8863253 0.65369493 0.069780253
0.88606524 0.72340399 0.07012742
0.88579965 0.79310662 0.070485339
0.88551658 0.86279291 0.070847355
0.88520557 0.9324522 0.071206525
0.88485837 1.0020763 0.071556784
0.88447189 1.0716633 0.071893178
0.88404787 1.141221 0.072211981
0.88359356 1.2107674 0.072510391
0.88312209 1.2803295 0.072785832
0.88265085 1.3499398 0.073034391
0.88220131 1.4196317 0.073248714
0.88179487 1.4894345 0.073416546
0.88145041 1.5593686 0.073521227
0.88117784 1.6294417 0.073544882
0.88097519 1.6996472 0.07347329
0.8808279 1.7699614 0.073300205
0.88071132 1.8403414 0.073028348
0.88059878 1.9107269 0.072664931
0.88047254 1.9810483 0.072210915
0.88033569 2.0512452 0.071645834
0.88021773 2.1212835 0.07091628
0.88016623 2.1911561 0.069940373
0.88022929 2.2608738 0.068626724
0.88044155 2.3304462 0.066894718
0.88082016 2.3998804 0.064685397
0.88136905 2.4691787 0.061958905
0.88208485 2.5383458 0.05868591
0.88295788 2.6073897 0.054845184
0.88397467 2.6763201 0.050432872
0.88511109 2.7451475 0.045494005
0.88634127 2.8138945 0.040069617
0.88763076 2.8825805 0.034263197
0.98603839 -2.9498944 1.691043e-05
0.98602885 -2.8804505 9.3492461e-05
0.98604453 -2.8110487 0.00021526453
0.98608851 -2.7416949 0.00038550154
0.98617071 -2.6724269 0.00067335228
0.98630506 -2.603313 0.0012556326
0.98646802 -2.5342758 0.0020767036
0.986619 -2.4652007 0.0030083372
0.98674113 -2.3960755 0.0041207033
0.98682457 -2.3269024 0.0054768864
0.98687118 -2.2576694 0.0070162313
0.98688316 -2.1883798 0.0086842868
0.98686951 -2.119045 0.010425433
0.98683906 -2.0496635 0.012232601
0.98681933 -1.980145 0.014260435
0.98679644 -1.9104115 0.016594591
0.98676002 -1.8406334 0.018963533
0.98673218 -1.7709149 0.021256227
0.98671401 -1.7013041 0.023445778
0.98670959 -1.6318344 0.025511237
0.98671705 -1.5625218 0.02745419
0.98673064 -1.4933767 0.029291045
0.98673862 -1.4243895 0.03104108
0.9867264 -1.3555226 0.032743648
0.98668265 -1.286707 0.034479946
0.98660201 -1.2178637 0.036346674
0.98648632 -1.1489395 0.038393103
0.986341 -1.0799234 0.040591817
0.98617166 -1.0108321 0.04286363
0.98598212 -0.94168955 0.045118477
0.98577607 -0.87251472 0.047283873
0.98555851 -0.80332083 0.049315922
0.98533583 -0.73411793 0.05119817
0.9851144 -0.66491538 0.052935217
0.98489845 -0.59572196 0.054545958
0.98468906 -0.52654368 0.056056906
0.98448467 -0.45738211 0.057494465
0.98428172 -0.38823289 0.058876894
0.98407632 -0.31908593 0.060208809
0.98386449 -0.24992695 0.061480734
0.98364192 -0.18073997 0.062673762
0.97869098 1.0017205 0.071639381
0.97829956 1.0713234 0.071976997
0.97786796 1.1408964 0.072307616
0.97740471 1.2104589 0.072629564
0.97692364 1.2800403 0.072939694
0.97644407 1.3496754 0.07323166
0.97598916 1.4193996 0.073493861
0.97558242 1.4892436 0.073708542
0.97524279 1.5592281 0.073853523
0.97497964 1.6293601 0.07390669
0.97478908 1.6996307 0.073851593
0.97465324 1.7700137 0.073681377
0.97454387 1.8404601 0.073398739
0.97443122 1.9109023 0.073009275
0.97429794 1.9812657 0.07250867
0.97415119 2.0514903 0.071866363
0.97402656 2.1215456 0.071018994
0.97397691 2.1914299 0.069878921
0.97405177 2.2611549 0.068356313
0.97428411 2.3307307 0.066377677
0.97468936 2.4001634 0.063890487
0.97527099 2.4694571 0.060859088
0.97602433 2.5386162 0.057259686
0.97693825 2.6076493 0.053083595
0.97799361 2.6765656 0.048358243
0.9791612 2.7453754 0.043171477
0.98040998 2.8141015 0.037592143
0.9817059 2.8827641 0.031742021
1.0800246 -3.019393 2.4457826e-05
1.0799872 -2.9499013 6.0771887e-05
1.0799694 -2.8804431 0.00013504003
1.0799751 -2.8110242 0.00025125174
1.0800083 -2.7416544 0.00041933267
1.0800947 -2.6724362 0.0008288633
1.0802336 -2.6033645 0.0015356275
1.0803838 -2.534287 0.0022995314
1.0805334 -2.4651701 0.0030977728
1.080672 -2.3960342 0.0040677739
1.0807899 -2.3268573 0.0052121039
1.08088 -2.2576287 0.0065289345
1.0809448 -2.1883509 0.0079878271
1.0809813 -2.1190276 0.0095687108
1.0809956 -2.0496674 0.011237886
1.0809858 -1.9802048 0.013077429
1.0809585 -1.9104657 0.01527224
1.0809304 -1.8406335 0.017558753
1.080914 -1.7708473 0.019802293
1.0809017 -1.7011679 0.021963378
1.0808896 -1.6316305 0.024020297
1.0808775 -1.5622543 0.025960157
1.0808622 -1.4930527 0.027788423
1.080837 -1.4240267 0.029509567
1.0807916 -1.3551508 0.031142665
1.0807173 -1.2863646 0.032752547
1.0806105 -1.2175827 0.034445237
1.0804713 -1.1487306 0.036310058
1.0803014 -1.0797753 0.038363449
1.0801028 -1.0107232 0.040551167
1.0798773 -0.94159776 0.042787496
1.0796298 -0.87242281 0.044991311
1.0793687 -0.80321807 0.047104705
1.0791063 -0.73399937 0.04909727
1.0788536 -0.66478169 0.05096278
1.0786177 -0.59557801 0.052713256
1.0784003 -0.52639776 0.054371499
1.0781986 -0.45724434 0.055961836
1.0780076 -0.38811365 0.057500556
1.0778213 -0.3189944 0.058989599
1.0776327 -0.24986996 0.060416173
1.0774351 -0.18072149 0.061757993
1.0698663 1.4191864 0.073827147
1.0694659 1.489064 0.074085362
1.0691376 1.5590882 0.074264869
1.0688901 1.6292659 0.074338786
1.0687174 1.6995862 0.074287467
1.068599 1.7700191 0.074101888
1.0685037 1.8405108 0.073782548
1.0683997 1.9109879 0.073331125
1.0682695 1.9813728 0.072737254
1.0681243 2.0516069 0.071963005
1.0680057 2.1216645 0.070939042
1.0679696 2.1915498 0.06957715
1.068065 2.261276 0.067792751
1.0683233 2.3308537 0.06551908
1.0687577 2.4002886 0.062711775
1.0693692 2.469584 0.059342965
1.070152 2.5387464 0.055400323
1.0710919 2.6077824 0.050899226
1.0721641 2.6766996 0.045910127
1.0733374 2.7455065 0.040548563
1.074586 2.8142254 0.034876075
1.1739873 -3.0194244 6.1152794e-05
1.1739445 -2.9499238 9.9730809e-05
1.1739194 -2.8804524 0.00017365433
1.173916 -2.8110175 0.00028653443
1.1739436 -2.7416496 0.00048173475
1.1740355 -2.6724749 0.00098891871
1.1741712 -2.6034048 0.001711691
1.1743102 -2.5342834 0.0023931738
1.1744603 -2.4651496 0.0031227197
1.1746104 -2.3959959 0.0039605075
1.1747531 -2.326808 0.0049276841
1.1748793 -2.2575781 0.006053519
1.1749896 -2.1883094 0.0073283473
1.1750739 -2.1190004 0.0087496042
1.1751336 -2.0496585 0.010281412
1.1751577 -1.9802462 0.011953526
1.1751426 -1.9105693 0.01394892
1.1751322 -1.8407054 0.016128059
1.1751305 -1.7708558 0.018309301
1.1751257 -1.7011081 0.020429978
1.1751057 -1.6314991 0.022470793
1.1750727 -1.5620525 0.024409138
1.1750253 -1.4927835 0.026241364
1.1749612 -1.4237008 0.02796004
1.1748744 -1.3547901 0.029559534
1.1747588 -1.2860047 0.031078266
1.1746124 -1.2172624 0.032616362
1.1744359 -1.1484717 0.034294661
1.1742291 -1.0795742 0.036181875
1.1739898 -1.0105596 0.038262945
1.1737177 -0.94144773 0.040464807
1.1734191 -0.87226862 0.042698253
1.1731085 -0.80304992 0.044887021
1.1728042 -0.73381525 0.046980958
1.1725223 -0.6645847 0.048958953
1.172272 -0.5953747 0.050825618
1.1720538 -0.5261963 0.052602742
1.1718628 -0.45705327 0.05431686
1.1716913 -0.38794121 0.05598633
1.17153 -0.31884751 0.057613123
1.1713694 -0.24975379 0.059182327
1.1712006 -0.18063924 0.060668472
1.1627784 1.6995049 0.074726596
1.1626858 1.769966 0.074492462
1.1626137 1.8404797 0.074093521
1.1625279 1.9109671 0.073528647
1.1624117 1.9813502 0.072783902
1.1622797 2.051574 0.071817368
1.1621783 2.1216202 0.070557438
1.162165 2.1914976 0.068917558
1.1622882 2.2612214 0.066819258
1.1625751 2.330802 0.064206928
1.1630361 2.400244 0.061045907
1.1636715 2.4695508 0.057320237
1.1644722 2.5387275 0.053037815
1.1654228 2.6077757 0.048239324
1.1664981 2.6767004 0.043028209
1.1676644 2.7455111 0.037538841
1.1688921 2.8142376 0.031850941
1.2679564 -3.0194674 8.5564599e-05
1.2679096 -2.9499595 0.00012790461
1.2678784 -2.8804774 0.00020322121
1.2678667 -2.8110287 0.00031482469
1.2678887 -2.7416596 0.00052894448
1.267984 -2.6725116 0.001086286
1.2681143 -2.60343 0.0017829163
1.2682469 -2.534286 0.0024172531
1.2683935 -2.4651315 0.0030852179
1.2685505 -2.3959582 0.0038088853
1.2687097 -2.3267565 0.0046354127
1.2688657 -2.2575259 0.0056005265
1.2690125 -2.1882644 0.0067177359
1.2691401 -2.1189702 0.0079840235
1.2692394 -2.0496442 0.0093792845
1.2693048 -1.9802772 0.010890811
1.2693236 -1.9107225 0.012641792
1.2693368 -1.8408461 0.01469588
1.2693551 -1.7709383 0.016798925
1.269359 -1.7011205 0.018867176
1.2693324 -1.6314386 0.02087892
1.2692765 -1.5619185 0.022808742
1.269194 -1.4925768 0.02464362
1.2690864 -1.4234248 0.02637521
1.2689531 -1.3544577 0.027976125
1.2687908 -1.2856435 0.02944999
1.2685972 -1.2169111 0.030873088
1.2683731 -1.1481609 0.032382924
1.2681175 -1.0793093 0.03410225
1.2678255 -1.0103235 0.036068518
1.2674952 -0.9412173 0.038230382
1.2671362 -0.87202597 0.040490955
1.2667706 -0.80278772 0.042751219
1.2664241 -0.73353541 0.044935741
1.2661176 -0.66429442 0.047004245
1.2658607 -0.59508282 0.048952889
1.2656521 -0.52591091 0.050805252
1.2654829 -0.4567813 0.052595355
1.2653407 -0.38768819 0.054349467
1.265213 -0.31861788 0.056074373
1.2650877 -0.24955079 0.0577561
1.2649531 -0.18046504 0.059367348
1.2568809 1.8403665 0.074232697
1.2568216 1.9108391 0.073496722
1.2567273 1.9811971 0.072541922
1.2566178 2.0513926 0.071323805
1.2565427 2.1214159 0.069769584
1.2565604 2.1912796 0.067798041
1.2567153 2.2610006 0.0653411
1.2570313 2.330586 0.062353648
1.2575179 2.4000392 0.058809496
1.2581738 2.4693613 0.054707121
1.2589881 2.5385542 0.050081406
1.2599403 2.6076186 0.045020446
1.2610003 2.6765571 0.03966767
1.2621359 2.7453859 0.034143172
1.2633165 2.8141396 0.028499506
1.3619305 -3.0195198 9.3008755e-05
1.3618811 -2.950007 0.00014028441
1.3618451 -2.8805168 0.00021841832
1.3618267 -2.8110557 0.00033051669
1.3618389 -2.7416689 0.00053441868
1.3619328 -2.6725245 0.0010913735
1.3620601 -2.6034405 0.0017675634
1.3621886 -2.5342875 0.0023732418
1.3623306 -2.4651146 0.0029884258
1.3624886 -2.3959222 0.0036290409
1.3626581 -2.326709 0.0043466091
1.3628359 -2.2574773 0.0051799752
1.3630099 -2.188221 0.0061602881
1.3631737 -2.1189411 0.0072813258
1.3633082 -2.0496318 0.0085396087
1.3634107 -1.9802974 0.0099036284
1.3634701 -1.9108616 0.011425262
1.3635117 -1.8410304 0.013304343
1.3635576 -1.7710813 0.015297538
1.3635722 -1.7011956 0.017298173
1.3635403 -1.6314427 0.019265795
1.363458 -1.5618516 0.021177679
1.3633354 -1.4924382 0.02300931
1.3631787 -1.4232123 0.024755932
1.3629947 -1.3541743 0.026381355
1.3627833 -1.2853041 0.027857998
1.362541 -1.2165464 0.029223284
1.3622642 -1.1478044 0.030609751
1.3619499 -1.0789752 0.032186121
1.3615934 -1.0100021 0.034049202
1.3611945 -0.9408887 0.036176626
1.3607689 -0.87167531 0.038464893
1.3603468 -0.80241132 0.040790338
1.3599614 -0.73313963 0.043049905
1.3596376 -0.66389054 0.0451818
1.359385 -0.59468198 0.047172248
1.3591982 -0.52552116 0.049047459
1.359063 -0.45640779 0.050852742
1.3589628 -0.38733399 0.052628037
1.3588803 -0.31828499 0.054391246
1.3587996 -0.24924053 0.056134734
1.358707 -0.18017876 0.057833087
1.3585916 -0.1110806 0.059455104
1.351271 1.9106166 0.073127523
1.3512044 1.9809296 0.071905039
1.3511243 2.0510824 0.07037802
1.3510836 2.1210732 0.068474405
1.3511398 2.1909196 0.066118456
1.3513325 2.2606342 0.063253261
1.3516829 2.3302245 0.059846621
1.3521963 2.3996904 0.05589265
1.3528687 2.4690292 0.051420301
1.3536842 2.5382414 0.046505835
1.3546188 2.6073248 0.041276831
1.3556416 2.6762846 0.035879277
1.3567246 2.7451479 0.030377282
1.4559078 -3.0195782 7.9876736e-05
1.4558575 -2.9500637 0.00013292313
1.4558183 -2.8805678 0.00021495146
1.4557945 -2.8110971 0.00032895771
1.4557936 -2.7416759 0.00050025008
1.4558762 -2.672502 0.001004048
1.4560031 -2.6034248 0.0016648496
1.4561309 -2.5342817 0.0022656969
1.4562681 -2.4650958 0.0028411241
1.4564222 -2.3958888 0.003428817
1.456597 -2.3266678 0.0040637013
1.4567863 -2.2574334 0.0047952216
1.4569811 -2.1881833 0.0056525497
1.4571699 -2.1189139 0.0066442816
1.4573365 -2.0496216 0.0077666682
1.4574686 -1.9803057 0.0089998581
1.457562 -1.910934 0.010346917
1.4576334 -1.8412437 0.011974324
1.4577129 -1.7712727 0.013821144
1.4577414 -1.701323 0.015736695
1.4576998 -1.6315051 0.017651303
1.4575844 -1.561852 0.019537283
1.4574115 -1.4923753 0.021364827
1.457198 -1.4230795 0.023122648
1.4569572 -1.3539649 0.024783865
1.4566953 -1.2850177 0.026300432
1.4564056 -1.2161964 0.027673138
1.4560763 -1.147418 0.029007897
1.4556997 -1.0785748 0.030495923
1.4552736 -1.0095898 0.032287396
1.4548043 -0.94045442 0.034391575
1.454314 -0.87121063 0.03670245
1.4538405 -0.80191708 0.039076567
1.4534235 -0.73262554 0.041387215
1.4530914 -0.66337043 0.043552302
1.4528528 -0.59416801 0.045546092
1.4526988 -0.52502149 0.047394577
1.4526103 -0.45592591 0.049153652
1.4525646 -0.3868711 0.050879758
1.4525396 -0.31784123 0.052607954
1.4525151 -0.24881591 0.05434458
1.4524741 -0.17977408 0.056073122
1.4524051 -0.11069867 0.057765804
1.4458622 1.9103187 0.072296664
1.4458274 1.9805697 0.070749305
1.445783 2.050669 0.068856418
1.4457846 2.1206224 0.066549651
1.4458855 2.1904483 0.06376373
1.4461203 2.2601576 0.060457636
1.446504 2.3297524 0.056620259
1.4470389 2.3992314 0.052276365
1.4477158 2.4685874 0.047495015
1.4485159 2.5378187 0.04238848
1.4494144 2.6069262 0.037080105
1.4503813 2.6759179 0.031711485
1.4513896 2.7448273 0.026345652
1.5498861 -3.0196395 4.3702919e-05
1.5498371 -2.9501269 0.00010304799
1.5497965 -2.8806281 0.00018969479
1.5497686 -2.8111506 0.00030663694
1.5497568 -2.7417004 0.00045568447
1.5498114 -2.6724415 0.0008384785
1.5499356 -2.603363 0.0014685055
1.5500685 -2.5342562 0.0020918215
1.5502017 -2.4650693 0.002645446
1.5503509 -2.3958561 0.003200612
1.550523 -2.3266294 0.0037835506
1.5507162 -2.2573946 0.0044365027
1.5509228 -2.1881495 0.0051894933
1.551128 -2.1188889 0.006066062
1.5513203 -2.0496113 0.0070591499
1.5514796 -1.980311 0.0081662545
1.5516032 -1.9109811 0.0093629695
1.5516963 -1.8414756 0.010704221
1.5518044 -1.7714924 0.01237697
1.5518467 -1.7014893 0.01419266
1.5517846 -1.631618 0.016053054
1.5516231 -1.5619206 0.017909482
1.5513847 -1.4923977 0.019735854
1.551102 -1.4230454 0.02150584
1.5507965 -1.3538579 0.023208017
1.55048 -1.28482 0.024791129
1.5501438 -1.2158973 0.026231946
1.5497669 -1.1470289 0.027600748
1.5493375 -1.0781237 0.029076455
1.5488554 -1.0090972 0.030837579
1.5483309 -0.93992579 0.032925196
1.547791 -0.8706466 0.035240941
1.5472792 -0.80132258 0.037633862
1.546841 -0.73201209 0.039963346
1.5465082 -0.66275197 0.042131569
1.5462896 -0.59355652 0.044099163
1.5461745 -0.52442431 0.0458856
1.5461401 -0.45534605 0.047551062
1.5461586 -0.38630882 0.049166065
1.5462019 -0.31729582 0.050786112
1.5462446 -0.24828681 0.052439693
1.5462656 -0.17926224 0.054129153
1.546252 -0.11020808 0.055838425
1.5461993 -0.04111876 0.057541415
1.5405747 1.9099753 0.070890516
1.540572 1.9801525 0.068969071
1.5405673 2.0501921 0.066664986
1.5406151 2.1201057 0.063917577
1.5407631 2.1899114 0.060678285
1.5410388 2.2596161 0.05692878
1.5414513 2.3292158 0.052689698
1.5419972 2.398705 0.048025645
1.5426642 2.4680774 0.043026056
1.5434325 2.5373297 0.037811529
1.5442765 2.606463 0.03253644
1.5451694 2.6754954 0.027309267
1.6438175 -2.9501922 4.9063288e-05
1.6437774 -2.8806942 0.00014073364
1.6437473 -2.8112128 0.00026126506
1.6437312 -2.7417545 0.00041237788
1.6437439 -2.672365 0.00064107927
1.6438532 -2.6032457 0.0011921703
1.6439869 -2.5341561 0.0018058007
1.6441262 -2.4650195 0.0023945
1.6442709 -2.3958135 0.0029360859
1.6444352 -2.3265855 0.0034896424
1.6446251 -2.2573516 0.0040851124
1.6448331 -2.1881113 0.0047586029
1.6450492 -2.1188605 0.0055299783
1.6452577 -2.0495934 0.0064103305
1.6454449 -1.9803059 0.0073932251
1.6455961 -1.9109789 0.0084495516
1.6457109 -1.8415445 0.0095508788
1.6458274 -1.7716807 0.010972914
1.6458755 -1.7016686 0.012673615
1.6457778 -1.6317734 0.014479383
1.6455489 -1.5620573 0.016312648
1.6452289 -1.4925132 0.018142119
1.6448616 -1.423124 0.019937107
1.6444806 -1.3538743 0.021684268
1.6441017 -1.2847376 0.023353549
1.6437168 -1.2156795 0.024908999
1.6433035 -1.1466682 0.026385628
1.6428515 -1.0776529 0.027917519
1.6423545 -1.0085568 0.029679514
1.6418123 -0.93933755 0.031745661
1.6412493 -0.87001932 0.034042299
1.6407161 -0.8006652 0.036422066
1.6402671 -0.73133683 0.038738228
1.6399392 -0.66207188 0.040883556
1.6397421 -0.59288144 0.042806581
1.6396654 -0.52376044 0.044514779
1.6396848 -0.454696 0.046063248
1.6397698 -0.38567325 0.047528826
1.6398872 -0.31667465 0.048985563
1.6400048 -0.24768044 0.050489742
1.6400959 -0.17867255 0.052073095
1.6401458 -0.10964081 0.053741623
1.6401514 -0.040585209 0.055478442
1.6401181 0.028487762 0.057249483
1.6353875 1.9096304 0.068829522
1.6354125 1.9797256 0.066495821
1.6354454 2.0497024 0.063748762
1.6355387 2.1195757 0.060543433
1.6357313 2.1893604 0.056856908
1.6360425 2.2590578 0.052704714
1.6364734 2.3286593 0.048135709
1.6370173 2.3981566 0.043233175
1.6376594 2.4675431 0.038115896
1.6383791 2.5368149 0.032928273
1.6391511 2.6059768 0.027824327
1.6399541 2.6750576 0.022862975
1.7377588 -2.8807619 6.731732e-05
1.7377288 -2.81128 0.00019176013
1.73771 -2.7418172 0.00034564533
1.7377053 -2.6723783 0.00052971701
1.7377566 -2.6030855 0.00087195955
1.7378819 -2.5339792 0.0014340852
1.7380215 -2.4648657 0.0020172428
1.7381704 -2.3957136 0.0025908828
1.738331 -2.3265173 0.0031527271
1.7385108 -2.2572932 0.0037228235
1.7387143 -2.1880589 0.0043334034
1.7389321 -2.1188147 0.0050181723
1.7391515 -2.0495481 0.0057862899
1.7393602 -1.9802437 0.0066223545
1.7395387 -1.9108894 0.0075172144
1.7396754 -1.8414797 0.0084600085
1.739778 -1.7718446 0.0095826238
1.7398211 -1.7018483 0.011183009
1.7396746 -1.6319609 0.012937518
1.7393596 -1.5622542 0.014758941
1.7389419 -1.4927157 0.01660135
1.7384748 -1.4233118 0.018440321
1.7380067 -1.3540103 0.020245908
1.7375612 -1.2847676 0.02200949
1.7371323 -1.2155457 0.023698442
1.7367084 -1.1463578 0.025308343
1.736285 -1.0772043 0.026919227
1.735833 -1.0080208 0.028688258
1.735319 -0.93874288 0.030725883
1.7347578 -0.86937904 0.032993346
1.7342163 -0.79999298 0.035346135
1.7337656 -0.73064774 0.037629455
1.7334477 -0.66137761 0.039732434
1.7332726 -0.59218895 0.041599449
1.7332286 -0.52307296 0.043227628
1.7332934 -0.45401567 0.044660348
1.7334377 -0.38500187 0.0459705
1.7336259 -0.31601474 0.047242709
1.7338195 -0.24703528 0.048560809
1.7339852 -0.17804685 0.049992908
1.7341036 -0.10904256 0.051575899
1.7341726 -0.040027823 0.053308025
1.7342007 0.02898605 0.055152774
1.7341977 0.097993411 0.057050627
1.7302929 1.9093448 0.066074111
1.730335 1.97935 0.063303985
1.7303951 2.0492556 0.060100775
1.7305222 2.119081 0.056447282
1.7307481 2.1888394 0.05235301
1.7310826 2.2585254 0.047863562
1.7315191 2.3281252 0.043056965
1.7320455 2.3976259 0.038042743
1.7326467 2.4670222 0.032956511
1.7333015 2.5363116 0.027955111
1.7339885 2.6055074 0.023145571
1.8317101 -2.8113482 9.8127624e-05
1.8316908 -2.7418842 0.0002550288
1.8316829 -2.6724398 0.00044128281
1.8316905 -2.6030221 0.00065909157
1.8317615 -2.5337636 0.0010412768
1.8318886 -2.4646294 0.0015701158
1.8320317 -2.3954883 0.0021213505
1.8321867 -2.3263154 0.002672249
1.8323566 -2.2571142 0.003228433
1.8325487 -2.187891 0.0038001677
1.8327612 -2.1186466 0.0044050086
1.8329861 -2.0493748 0.0050643738
1.83321 -1.9800693 0.0057940874
1.8334149 -1.9107229 0.0065817945
1.8335721 -1.8413275 0.0074132145
1.8336697 -1.7718529 0.008309613
1.8336954 -1.7019833 0.0097438125
1.8334872 -1.6321543 0.011440994
1.8330774 -1.5624919 0.013255251
1.8325479 -1.4929807 0.01513149
1.8319757 -1.4235786 0.017031243
1.8314236 -1.3542287 0.018918322
1.8309327 -1.2848648 0.020766707
1.8304911 -1.2154675 0.022562455
1.8300953 -1.1461052 0.024272596
1.8297457 -1.0768137 0.025934825
1.8293805 -1.0075343 0.02769731
1.8289232 -0.93818611 0.029708548
1.8283787 -0.86876971 0.031956788
1.8278381 -0.79935127 0.034288391
1.8273935 -0.7299909 0.036535408
1.8270919 -0.66071534 0.038585924
1.8269395 -0.59152424 0.040389061
1.8269225 -0.52240545 0.041940521
1.8270205 -0.45334548 0.043273684
1.8272091 -0.38433218 0.044451099
1.8274552 -0.31535199 0.045556862
1.8277173 -0.24638838 0.04669461
1.827955 -0.17742585 0.047968049
1.8281423 -0.10845888 0.049447384
1.8282758 -0.039495572 0.051147185
1.8283657 0.029450839 0.053029034
1.828422 0.098377094 0.055017468
1.8284426 0.16730118 0.057036702
1.8252487 1.8391949 0.065414503
1.8253086 1.9092004 0.062643953
1.8253504 1.9791064 0.059435345
1.8254138 2.0489247 0.055781323
1.8255451 2.118681 0.051700793
1.8257762 2.1883922 0.047259163
1.826113 2.2580545 0.042541943
1.8265378 2.3276443 0.037641205
1.8270315 2.3971436 0.032674577
1.8275762 2.4665446 0.027787648
1.828153 2.5358491 0.023124542
1.9256709 -2.741951 0.00014117746
1.9256623 -2.6725047 0.00032976473
1.9256654 -2.6030786 0.00054715225
1.925683 -2.5336764 0.00079298526
1.9257479 -2.4643869 0.0011493784
1.9258664 -2.3952012 0.0016248123
1.9260054 -2.3260233 0.0021331646
1.9261593 -2.25683 0.0026544177
1.9263316 -2.1876135 0.0031844582
1.9265261 -2.1183758 0.0037294973
1.9267434 -2.0491138 0.0043097581
1.9269739 -1.9798205 0.0049467022
1.9271976 -1.9104868 0.0056482311
1.9273818 -1.8411046 0.0063886992
1.9274932 -1.771679 0.0071823527
1.9275008 -1.702085 0.0083522471
1.9272388 -1.6323429 0.0099895326
1.9267398 -1.5627414 0.011809317
1.9261068 -1.4932705 0.013736202
1.9254571 -1.4238758 0.01571486
1.9248816 -1.3544625 0.017676484
1.9243914 -1.2849658 0.019582542
1.9239616 -1.2154119 0.021428721
1.9236042 -1.1458961 0.023193631
1.9233247 -1.07647 0.024883606
1.9230444 -1.007087 0.026631217
1.9226532 -0.93766737 0.028610906
1.9221431 -0.86820847 0.030834304
1.921621 -0.79876918 0.033139151
1.9211936 -0.7294001 0.035348441
1.9209131 -0.66011912 0.03734725
1.9207827 -0.59091991 0.039088842
1.9207865 -0.52178884 0.040570926
1.9209057 -0.45271453 0.041824587
1.9211218 -0.38369021 0.042905465
1.9214073 -0.31470948 0.043890934
1.9217225 -0.24576168 0.044892333
1.9220209 -0.17683309 0.046038263
1.9222707 -0.10791647 0.047424424
1.9224638 -0.039016865 0.049075238
1.9226096 0.029856481 0.050947819
1.9227171 0.098706327 0.052955795
1.9227834 0.1675605 0.054998405
1.9203227 1.7693688 0.064448088
1.9204173 1.8393731 0.061763559
1.9204658 1.9092799 0.058607992
1.9204887 1.9790806 0.054993957
1.9205198 2.0487885 0.050932724
1.9206023 2.1184323 0.046483912
1.9207863 2.1880558 0.041780587
1.9210922 2.2576694 0.036965732
1.9214859 2.3272378 0.03213371
1.9219319 2.3967273 0.027390422
1.9224092 2.4661274 0.022864411
1.9229079 2.5354555 0.018591106
2.0196464 -2.7420113 5.5139953e-06
2.0196395 -2.6725676 0.00019630979
2.0196416 -2.6031389 0.00041550788
2.0196552 -2.5337303 0.0006627253
2.0196824 -2.4643443 0.00093706173
2.0197251 -2.3949866 0.0012406408
2.0198138 -2.3257279 0.0016390799
2.0199339 -2.2565088 0.0020931636
2.0200717 -2.1872833 0.0025622232
2.0202286 -2.1180422 0.0030403847
2.0204132 -2.0487835 0.0035364032
2.020628 -1.9794984 0.0040773698
2.0208628 -1.9101849 0.004697754
2.0210636 -1.8408633 0.0054029226
2.0211861 -1.7715435 0.0061819246
2.0212107 -1.7021834 0.0070761698
2.0209563 -1.6325122 0.0085843513
2.0204065 -1.5629667 0.010429888
2.0197289 -1.4935547 0.012418651
2.0191119 -1.4241785 0.014464824
2.0185556 -1.3546836 0.016457163
2.0180588 -1.2850567 0.018384935
2.0176234 -1.215358 0.020245537
2.0172787 -1.145689 0.022050563
2.0170238 -1.0761144 0.023790574
2.0167966 -1.0066249 0.025535349
2.0164864 -0.93716043 0.027448056
2.0160544 -0.86769724 0.029585946
2.0155873 -0.79826462 0.031814177
2.0151951 -0.72889715 0.033963822
2.0149374 -0.65960902 0.035913028
2.0148227 -0.59039438 0.037606798
2.014838 -0.52124065 0.039037868
2.0149665 -0.45213932 0.040236652
2.0151937 -0.38309017 0.041258648
2.0154984 -0.31409726 0.042178046
2.0158439 -0.24516022 0.0431045
2.0161831 -0.17626953 0.044173893
2.0164793 -0.10741329 0.045489572
2.0167198 -0.038586073 0.047073532
2.0169101 0.030214844 0.048875462
2.0170548 0.09900219 0.050807148
2.0171525 0.16780704 0.052772302
2.0171943 0.23666647 0.054678846
2.0154467 1.6998143 0.062961563
2.0156085 1.7698433 0.060493611
2.0157075 1.8397802 0.057513725
2.015748 1.9096047 0.054059032
2.0157456 1.9793094 0.050148744
2.0157187 2.0488966 0.045800876
2.0157008 2.1183894 0.041090265
2.0157681 2.18786 0.036210209
2.0159907 2.2573802 0.031415928
2.01633 2.3269105 0.026812619
2.0167193 2.3963845 0.022429993
2.0171289 2.4657879 0.018327368
2.1136119 -2.6726222 4.2704396e-05
2.1136148 -2.6031961 0.00026350975
2.1136272 -2.5337849 0.00051222992
2.1136508 -2.4643919 0.00078805262
2.1136863 -2.39502 0.0010895812
2.1137352 -2.3256705 0.0014149274
2.1137977 -2.2563448 0.0017618109
2.1138742 -2.187043 0.0021290081
2.113965 -2.1177657 0.0025161784
2.1140659 -2.0485036 0.0029159554
2.1141796 -1.9792528 0.0033336242
2.1143703 -1.9100088 0.0038789029
2.1145756 -1.8407495 0.0045366073
2.1147132 -1.7714609 0.0052398555
2.1147623 -1.7021309 0.0060050371
2.1146595 -1.6326259 0.0072413101
2.114171 -1.5631685 0.0091349613
2.1136222 -1.493921 0.011201904
2.1130056 -1.4244808 0.013235894
2.1124156 -1.3548747 0.015216998
2.1118827 -1.2851129 0.017132146
2.1114428 -1.2152764 0.019005651
2.1111009 -1.1454622 0.020858223
2.1108408 -1.0757558 0.022659333
2.1106327 -1.006179 0.024423918
2.110409 -0.93669695 0.026240299
2.1101022 -0.86726141 0.028209914
2.1097374 -0.79785633 0.030280968
2.109406 -0.72849667 0.032314703
2.1091764 -0.65919745 0.034191962
2.1090715 -0.58995897 0.035839427
2.1090858 -0.52077252 0.037238196
2.1092076 -0.45163223 0.038410015
2.1094265 -0.38254392 0.039412256
2.1097248 -0.31352404 0.040316515
2.1100702 -0.2445859 0.041223872
2.11042 -0.17572676 0.04225925
2.1107376 -0.10692892 0.043512523
2.111007 -0.038170788 0.044993334
2.1112254 0.03056897 0.04664674
2.1113925 0.099316016 0.048395541
2.1115065 0.16809976 0.050175995
2.111553 0.23696223 0.051893011
2.1115263 0.30593982 0.053484328
2.1114266 0.37505683 0.054913677
2.1101456 1.5602388 0.062292032
2.110456 1.6303585 0.060694218
2.1107123 1.700438 0.058548175
2.1108911 1.7704289 0.055862952
2.1109896 1.8403056 0.052682746
2.1110213 1.91006 0.049057186
2.1109967 1.9796876 0.045017362
2.11092 2.0491784 0.040585265
2.1108038 2.1185353 0.035816189
2.1107097 2.1878159 0.03088101
2.1107912 2.2571871 0.026168851
2.1110568 2.3266606 0.021886708
2.1113858 2.3961179 0.017944766
2.2075822 -2.6032426 9.3327166e-05
2.2075961 -2.5338333 0.00034324132
2.2076178 -2.464438 0.00062030286
2.2076497 -2.3950598 0.00092317129
2.2076929 -2.3256998 0.001249934
2.2077475 -2.2563601 0.0015981805
2.2078135 -2.1870401 0.001965164
2.207891 -2.1177397 0.00234808
2.2079782 -2.048456 0.0027447029
2.2080731 -1.9791857 0.0031545698
2.2081716 -1.9099228 0.0035809344
2.2082636 -1.8406551 0.0040430669
2.2083437 -1.7713649 0.0045859637
2.2083921 -1.7020388 0.0052480903
2.2083976 -1.6328074 0.0064225309
2.208113 -1.5635257 0.0081790863
2.2076156 -1.494163 0.010078601
2.2069321 -1.4245925 0.012039345
2.2063205 -1.3549297 0.013960205
2.2057993 -1.2850971 0.01584807
2.2054169 -1.2151904 0.017766709
2.2050948 -1.1452972 0.019637233
2.2048309 -1.0755111 0.0214494
2.2046249 -1.0058727 0.023212137
2.2044501 -0.9363665 0.024957538
2.2042608 -0.86694384 0.026739774
2.2040305 -0.79756069 0.028583335
2.2037933 -0.72820687 0.030421717
2.2036107 -0.65889192 0.032162037
2.2035191 -0.58962333 0.033725452
2.2035239 -0.52039629 0.035077024
2.2036226 -0.45120704 0.036229279
2.2038078 -0.38206714 0.037237167
2.2040665 -0.31300563 0.03816238
2.2043731 -0.24405003 0.039086904
2.2046952 -0.17520443 0.040102832
2.205003 -0.10644572 0.041270357
2.2052786 -0.037735734 0.042588145
2.2055087 0.030967418 0.044008657
2.2056832 0.099703506 0.045477681
2.2057996 0.16849838 0.046979107
2.2058399 0.23739313 0.048424121
2.2057986 0.30641574 0.049765613
2.2056792 0.37558091 0.050979916
2.2054911 0.44489151 0.052054204
2.2052464 0.51434129 0.052978504
2.2049611 0.58391237 0.053756498
2.2046554 0.65357393 0.054414924
2.2043533 0.72328752 0.055004846
2.2040794 0.79301447 0.055592638
2.2038558 0.86272359 0.05624238
2.2036958 0.93239778 0.056985479
2.2035987 1.0020375 0.057795029
2.2035539 1.0716599 0.058590796
2.2035553 1.1412911 0.059271928
2.203613 1.2109648 0.059752554
2.2037523 1.2807189 0.059978779
2.2040014 1.3505876 0.059917301
2.2043536 1.4205811 0.059523679
2.2047665 1.490678 0.058733348
2.2051859 1.5608313 0.057481006
2.2055562 1.6309741 0.055716679
2.205838 1.7010363 0.053416576
2.2060168 1.7709779 0.050603829
2.206105 1.8407897 0.047342155
2.20612 1.9104774 0.04369453
2.2060719 1.9800385 0.039704274
2.2059639 2.0494654 0.035393577
2.2057943 2.1187451 0.030793991
2.2055769 2.1878853 0.025988294
2.2054851 2.2570741 0.021401444
2.2056665 2.3264809 0.017506856
2.2059388 2.3959267 0.014022744
2.3015571 -2.533869 0.0001578821
2.3015802 -2.4644759 0.00043569301
2.3016107 -2.3950953 0.0007394384
2.3016503 -2.3257296 0.0010672479
2.3016992 -2.2563798 0.001416687
2.3017581 -2.187047 0.0017848634
2.3018265 -2.1177309 0.0021686829
2.3019032 -2.048429 0.0025654081
2.3019869 -1.9791397 0.0029738974
2.3020737 -1.9098563 0.0033969772
2.3021579 -1.8405708 0.0038449711
2.3022292 -1.7712679 0.0043454082
2.3022232 -1.7020482 0.0051951502
2.3021963 -1.6327821 0.0061744209
2.3020191 -1.5634652 0.007457355
2.3015893 -1.4940259 0.0090351626
2.3007903 -1.4243468 0.010878302
2.3002603 -1.3548155 0.012744175
2.2998977 -1.2850978 0.014631471
2.2995751 -1.2152086 0.016540065
2.2992864 -1.1452979 0.018383211
2.2990417 -1.0754707 0.020143569
2.2988429 -1.0057863 0.021848558
2.2986803 -0.93623817 0.023519972
2.2985356 -0.86678648 0.025175355
2.2984011 -0.79739124 0.026806811
2.2982709 -0.72802943 0.028394341
2.2981629 -0.65869582 0.029916666
2.2981009 -0.58939439 0.03132116
2.2980986 -0.52012336 0.032573119
2.2981639 -0.45088089 0.033670135
2.2982945 -0.38168103 0.034659304
2.2984815 -0.31256604 0.035590414
2.2987132 -0.24357457 0.03651154
2.2989733 -0.17471492 0.037472539
2.2992423 -0.10596116 0.038502645
2.2995017 -0.037263013 0.039593339
2.299727 0.03143955 0.040712941
2.2998936 0.10020008 0.041834075
2.2999978 0.16903882 0.042990126
2.3000221 0.23799033 0.044105977
2.2999616 0.30707249 0.04515541
2.2998233 0.37628973 0.04613186
2.2996194 0.44563752 0.04702777
2.2993636 0.51510388 0.047832634
2.2990754 0.58466649 0.04855106
2.2987797 0.65429246 0.049214959
2.2985029 0.7239455 0.049879476
2.2982683 0.79359573 0.05060178
2.2980926 0.86322373 0.051419113
2.2979825 0.93282491 0.052320324
2.2979324 1.0024103 0.053233333
2.2979295 1.072 0.054049082
2.2979722 1.1416193 0.054663483
2.2980738 1.2112962 0.05500818
2.2982717 1.2810669 0.055058789
2.2985992 1.3509667 0.054814354
2.299042 1.4210016 0.054250944
2.2995381 1.4911382 0.053311434
2.3000195 1.5613179 0.051936936
2.3004265 1.6314629 0.050083887
2.3007164 1.7014941 0.047731146
2.3008859 1.7713803 0.044915628
2.3009596 1.8411313 0.041711144
2.3009577 1.9107596 0.038178265
2.3008897 1.9802661 0.034358069
2.30076 2.0496483 0.030290592
2.3005683 2.1188941 0.026023734
2.3002989 2.1879773 0.021590278
2.3000696 2.257026 0.017308511
2.300179 2.3263829 0.013837464
2.3955326 -2.4644978 0.00023610934
2.3955648 -2.3951201 0.00054009887
2.3956034 -2.3257525 0.00086830097
2.3956492 -2.2563975 0.001218338
2.3957031 -2.1870558 0.0015872746
2.3957646 -2.1177275 0.0019718392
2.3958333 -2.0484121 0.0023688718
2.3959079 -1.9791065 0.0027764835
2.3959846 -1.9098065 0.0031976879
2.3960586 -1.8405036 0.0036418401
2.3960011 -1.771194 0.0044155503
2.3960376 -1.701923 0.0051126862
2.3960626 -1.6326059 0.0058641126
2.395997 -1.563168 0.0067383782
2.3956995 -1.493517 0.0079208417
2.3950243 -1.4241104 0.0098303985
2.3944743 -1.3546768 0.011717222
2.3941433 -1.2851262 0.013507552
2.3938797 -1.215335 0.015337451
2.3936524 -1.1454629 0.017113196
2.3934569 -1.0756341 0.018789129
2.3932998 -1.0059214 0.020367
2.3931527 -0.93633026 0.02191068
2.3929954 -0.86682588 0.023448624
2.3928657 -0.79738563 0.02493429
2.3927724 -0.7279889 0.026323047
2.392709 -0.65861976 0.027614584
2.3926756 -0.58927804 0.028817046
2.3926802 -0.51996243 0.029903796
2.3927224 -0.45067182 0.030866284
2.3928008 -0.38141754 0.031749908
2.3929107 -0.31224555 0.032582279
2.3930571 -0.24319793 0.033385567
2.3932402 -0.17428736 0.034185503
2.3934534 -0.10549152 0.034988534
2.3936765 -0.036756635 0.03578826
2.3938742 0.031989563 0.036571875
2.3940136 0.10080998 0.037329935
2.3940895 0.16972111 0.038121909
2.3940859 0.23874895 0.038884703
2.3940029 0.30789983 0.039623149
2.3938525 0.37716606 0.040364411
2.3936484 0.44653627 0.041107893
2.3934059 0.51599497 0.04183957
2.3931453 0.58551896 0.042561062
2.3928916 0.65507865 0.043303244
2.3926697 0.72464591 0.044116005
2.3924959 0.79420358 0.045030855
2.3923798 0.86374611 0.046040989
2.3923204 0.93328005 0.047087215
2.392309 1.0028206 0.048065912
2.3923342 1.0723853 0.048862632
2.3923965 1.1419904 0.049387012
2.3925107 1.2116551 0.049590722
2.3927183 1.2814118 0.049471751
2.3930643 1.3512979 0.049057659
2.3935378 1.4213229 0.048351396
2.3940644 1.4914504 0.047311906
2.3945711 1.5616181 0.045889996
2.3949976 1.6317466 0.044047326
2.3953001 1.7017511 0.041756798
2.3954706 1.7715969 0.039043028
2.3955407 1.8413028 0.035990559
2.3955286 1.9108844 0.032663193
2.3954442 1.9803479 0.029120397
2.3952985 2.0497026 0.025445011
2.3951032 2.1189506 0.021703726
2.3948662 2.1880853 0.017947268
2.3946877 2.2572181 0.014354506
2.3947086 2.3265069 0.011277397
2.489471 -2.4644957 2.3138986e-05
2.4895074 -2.3951259 0.00032676948
2.4895484 -2.3257618 0.00065461936
2.4895937 -2.2564061 0.0010044418
2.4896452 -2.1870601 0.0013733534
2.4897027 -2.1177244 0.0017580596
2.4897544 -2.0483859 0.0022128301
2.489794 -1.9790298 0.0027539923
2.4898279 -1.9096904 0.0032678426
2.4897695 -1.8403512 0.0038552589
2.4897912 -1.7710407 0.0044242344
2.4898806 -1.7017443 0.0049419114
2.4899938 -1.6324006 0.005443471
2.4900155 -1.5628544 0.0061012362
2.4899261 -1.4933145 0.0072314506
2.4894755 -1.4238553 0.0088869976
2.4889345 -1.3544216 0.01072873
2.4884973 -1.284976 0.012539561
2.4882526 -1.2154331 0.014246843
2.4881229 -1.1456927 0.015904568
2.4880195 -1.0759356 0.017450541
2.4879537 -1.0062425 0.018856606
2.4878721 -0.93662691 0.020189282
2.4876719 -0.86705804 0.021593541
2.4874914 -0.79756796 0.022931188
2.4873717 -0.72812915 0.024140688
2.4872925 -0.65870643 0.025250265
2.4872527 -0.58930933 0.026251959
2.4872549 -0.51994395 0.027134094
2.4872701 -0.45061678 0.027889021
2.4872973 -0.38132691 0.028546495
2.4873393 -0.31210485 0.029138451
2.4874084 -0.24298356 0.029688025
2.4875171 -0.17397887 0.030203383
2.4876623 -0.10508139 0.030677147
2.4878273 -0.03625147 0.031119462
2.4879756 0.032584213 0.031538174
2.4880693 0.10149796 0.031940036
2.4881008 0.17050759 0.032383896
2.48806 0.23962604 0.032820564
2.4879541 0.30884725 0.033284314
2.487803 0.37814915 0.033850607
2.487623 0.44751596 0.034524392
2.4874251 0.51693451 0.035276081
2.4872251 0.58638829 0.036095858
2.4870412 0.65585905 0.037000839
2.4868927 0.72533077 0.03802266
2.4867876 0.79479963 0.03915415
2.486728 0.8642711 0.040340427
2.4867089 0.93375707 0.041488942
2.4867222 1.0032694 0.042490862
2.4867613 1.0728171 0.043247726
2.4868264 1.1424062 0.043688174
2.4869294 1.2120458 0.043775126
2.4871042 1.2817587 0.043512218
2.4873996 1.3515801 0.042942099
2.4878268 1.4215325 0.042101804
2.4883232 1.4915895 0.040977225
2.4888201 1.5617008 0.039543219
2.4892583 1.6317962 0.037776865
2.4895875 1.7017888 0.035651546
2.4897766 1.7716169 0.033159424
2.4898517 1.8412927 0.030370578
2.4898324 1.9108357 0.027356869
2.4897363 1.9802721 0.02421551
2.4895916 2.0496354 0.021073049
2.4894011 2.1188848 0.017882559
2.4891894 2.188046 0.014664066
2.4890556 2.2572439 0.011690119
2.4890685 2.3265612 0.0091981469
2.5834346 -2.3951032 0.00010070179
2.5834804 -2.3257484 0.00042755067
2.5835285 -2.2563972 0.00077708211
2.5835743 -2.1870611 0.001235368
2.5836139 -2.117717 0.0017521486
2.5836527 -2.0483599 0.00226675
2.583672 -1.9789909 0.0027967482
2.5836298 -1.9096129 0.0033575438
2.5836296 -1.8402599 0.0038602639
2.583689 -1.7709275 0.0042916727
2.5838418 -1.7016113 0.0046246569
2.5839612 -1.6322691 0.0049264356
2.5839162 -1.5627797 0.005834491
2.5838304 -1.4932272 0.0069809677
2.5837171 -1.4236389 0.0083160661
2.5835385 -1.3540667 0.0098220343
2.5830843 -1.2846354 0.011615125
2.5827751 -1.2151791 0.013316159
2.5826213 -1.1456922 0.014873295
2.5826023 -1.076183 0.016248623
2.5826983 -1.0066414 0.017419722
2.5827768 -0.93706214 0.018479258
2.5824909 -0.86741579 0.019792132
2.5822408 -0.79788566 0.020958997
2.582093 -0.72842163 0.021953113
2.5819921 -0.65893555 0.022877801
2.5819223 -0.58949471 0.023642201
2.581882 -0.52010638 0.024235515
2.581845 -0.45076901 0.02467408
2.581816 -0.3814688 0.025010906
2.5818033 -0.31220964 0.025276918
2.5818107 -0.24300204 0.025481494
2.581852 -0.17386627 0.025642749
2.5819225 -0.10481985 0.025743857
2.5820127 -0.035844646 0.025785781
2.5820918 0.033125468 0.025816262
2.5821261 0.10216621 0.025900742
2.5821052 0.17129752 0.026062252
2.5820305 0.24051321 0.026256394
2.5819154 0.30979645 0.026533976
2.5817864 0.3791146 0.027016165
2.5816538 0.4484531 0.027711701
2.581522 0.51781005 0.028568396
2.5813951 0.58718222 0.029554736
2.5812852 0.65656668 0.030660121
2.581202 0.72596008 0.031880818
2.5811496 0.79536718 0.033173401
2.5811262 0.86479729 0.034459386
2.5811288 0.93425816 0.035643883
2.5811551 1.0037558 0.036632687
2.5812006 1.0732919 0.037345834
2.5812643 1.1428664 0.037724342
2.5813503 1.2124786 0.037734289
2.5814743 1.2821369 0.037372977
2.5816698 1.3518624 0.036677536
2.5819733 1.4216844 0.035713889
2.5823569 1.4915986 0.034512755
2.5827856 1.5615866 0.033098664
2.5832062 1.6316042 0.031463321
2.5835516 1.7015685 0.029567245
2.5837789 1.7714012 0.027396519
2.5838728 1.8410659 0.024961814
2.5838554 1.9105844 0.02234528
2.5837622 1.9800217 0.01972595
2.5836346 2.0493908 0.017113447
2.5834391 2.1186168 0.014316107
2.5832965 2.1878536 0.011692858
2.5832229 2.2571313 0.0093628746
2.5832341 2.3264749 0.0073975557
2.6773937 -2.3257036 0.00018828483
2.6774445 -2.2563779 0.0006266096
2.67749 -2.187043 0.0011054237
2.677531 -2.1176858 0.0015743914
2.6775644 -2.0483236 0.0021039248
2.6775582 -1.9789615 0.0027176712
2.677556 -1.9095876 0.003244187
2.677588 -1.8402201 0.0036895978
2.6777112 -1.7708744 0.0039938497
2.6777897 -1.7015227 0.0044320943
2.6778474 -1.6321833 0.0047849882
2.677835 -1.5627391 0.0054891338
2.6777437 -1.4931767 0.0066667208
2.6776278 -1.4235755 0.0080480892
2.6775081 -1.3539679 0.0095492359
2.6773956 -1.2843791 0.011096974
2.6772981 -1.2148265 0.012624799
2.6772177 -1.1453182 0.014080714
2.6771579 -1.0758544 0.015421693
2.6771185 -1.0064301 0.016621305
2.6770935 -0.93703109 0.017653232
2.6770067 -0.86761028 0.018602625
2.6768281 -0.79811686 0.019516777
2.6767209 -0.72866005 0.020204648
2.6766393 -0.6592176 0.020734426
2.676574 -0.5898217 0.021065978
2.6765153 -0.52046734 0.02122836
2.6764395 -0.45114765 0.021271301
2.6763761 -0.3818419 0.021239635
2.6763396 -0.3125433 0.0211576
2.6763117 -0.24326216 0.021016873
2.6762996 -0.17400813 0.020826392
2.6762996 -0.10480627 0.020565249
2.6763096 -0.035660461 0.02023128
2.6763101 0.033478502 0.019934239
2.6762786 0.10268044 0.019835465
2.6762142 0.17194073 0.019847054
2.6761305 0.24123937 0.019963173
2.676033 0.3105593 0.020217402
2.6759391 0.37987936 0.020697488
2.6758521 0.44919547 0.021405367
2.67577 0.51851493 0.022297842
2.6756949 0.58784211 0.023350226
2.675631 0.65718216 0.024537833
2.6755853 0.72653979 0.025828298
2.6755576 0.7959218 0.027162967
2.6755505 0.8653357 0.028462302
2.6755619 0.93478584 0.029639037
2.6755917 1.004274 0.030609539
2.6756375 1.0737984 0.031302486
2.6756988 1.1433567 0.031664513
2.6757724 1.2129446 0.031663693
2.6758614 1.2825605 0.031292468
2.6759732 1.3522053 0.030570542
2.6761184 1.421885 0.029542115
2.6763029 1.4916029 0.028266298
2.6765776 1.5613935 0.02686118
2.6769092 1.6312507 0.025345253
2.6772053 1.7011067 0.023657264
2.6774077 1.7708728 0.021779412
2.6775079 1.8405101 0.019733081
2.6775136 1.9100215 0.017579839
2.6775486 1.9795923 0.015656929
2.6775117 2.0490363 0.013591678
2.6773987 2.1183424 0.011386525
2.6773217 2.1876552 0.009355084
2.6773 2.2570026 0.0075948462
2.677321 2.3263781 0.0061230254
2.7713487 -2.2563317 0.00044211649
2.7713969 -2.1869874 0.00086228753
2.771441 -2.117635 0.0013248754
2.7714827 -2.0483022 0.0019652243
2.7715027 -1.9789443 0.0025174515
2.7715201 -1.909572 0.002991495
2.7715755 -1.840203 0.0033802041
2.7716646 -1.770844 0.003669363
2.7717087 -1.7014853 0.004124972
2.7717636 -1.6321415 0.0044752657
2.7717721 -1.5627276 0.0050441809
2.7716818 -1.4931668 0.0062177437
2.7715604 -1.4235563 0.0076452838
2.7714322 -1.3539331 0.0092258779
2.7713175 -1.2843295 0.010845738
2.7712278 -1.2147658 0.01241257
2.7711649 -1.1452489 0.013871633
2.7711265 -1.0757817 0.015184648
2.7711105 -1.0063837 0.016356496
2.7710836 -0.93696517 0.017333565
2.7710586 -0.86755198 0.018094996
2.7710376 -0.79816353 0.018629592
2.771044 -0.72881073 0.018924132
2.7710626 -0.65948123 0.018975588
2.7710865 -0.59021407 0.018724795
2.77108 -0.52093005 0.018380789
2.7710431 -0.45160478 0.018024646
2.7709911 -0.38227075 0.017619712
2.7709341 -0.31293041 0.017190874
2.7708707 -0.24358641 0.016740952
2.7708049 -0.17424048 0.016281689
2.7707384 -0.10490265 0.01583137
2.7706723 -0.035580959 0.01539107
2.7706058 0.033734456 0.014997364
2.7705314 0.10307059 0.014761344
2.7704523 0.17241777 0.014623414
2.7703724 0.24176756 0.014627441
2.7702954 0.3111124 0.014800964
2.7702265 0.38044414 0.015190701
2.7701666 0.44976401 0.015802462
2.7701099 0.51908243 0.016607461
2.7700584 0.58840501 0.01759454
2.7700152 0.65773845 0.01873691
2.7699833 0.72709024 0.019990722
2.7699654 0.79646766 0.02129237
2.7699621 0.86587608 0.022564672
2.7699752 0.93531865 0.023724409
2.7700028 1.0047959 0.024691259
