# .PCD v0.7 - Point Cloud Data file format
VERSION 0.7
FIELDS x y z
SIZE 4 4 4
TYPE F F F
COUNT 1 1 1
WIDTH 1443
HEIGHT 1
VIEWPOINT 0 0 0 1 0 0 0
POINTS 1443
DATA ascii
0.061198696 0.12796092 0.57800001
0.062102616 0.12773952 0.57700002
0.06322179 0.12796092 0.57800001
0.064455606 0.12840368 0.58000004
0.065583535 0.12862508 0.58100003
0.13459811 0.16139016 0.72900003
0.13550116 0.16094738 0.72700006
0.13658533 0.160726 0.72600001
0.13766602 0.16050461 0.72500002
0.13855155 0.16006184 0.72300005
0.13943009 0.15961906 0.72100002
0.14049678 0.15939768 0.72000003
0.14136307 0.1589549 0.71800005
0.14222234 0.15851213 0.71600002
0.14287426 0.15784797 0.71300006
0.14391993 0.15762658 0.71200001
0.14516598 0.15762658 0.71200001
0.14620642 0.15740521 0.71100003
0.14682858 0.15674105 0.708
0.14764936 0.15629828 0.70600003
0.14825226 0.15563412 0.70300001
0.1490573 0.15519135 0.70100003
0.14964096 0.1545272 0.69800001
0.15107866 0.15474859 0.69900006
0.1518662 0.1543058 0.69700003
0.15264672 0.15386304 0.69500005
0.1529775 0.1529775 0.69100004
0.15396367 0.15275611 0.69000006
0.15449657 0.15209195 0.68700004
0.1552456 0.15164919 0.68500006
0.15672268 0.15076365 0.68100005
0.15768258 0.15054226 0.68000001
0.0025288719 0.12897246 0.57800001
0.0045440937 0.12874933 0.57700002
0.0055442671 0.1285262 0.57600003
0.0075997412 0.12919562 0.57900006
0.010602886 0.12874933 0.57700002
0.01370316 0.12941873 0.58000004
0.014692834 0.12919562 0.57900006
0.015706131 0.12919562 0.57900006
0.016719431 0.12919562 0.57900006
0.017763356 0.12941873 0.58000004
0.018810783 0.12964188 0.58100003
0.019793453 0.12941873 0.58000004
0.020772627 0.12919562 0.57900006
0.021748297 0.12897246 0.57800001
0.022799224 0.12919562 0.57900006
0.02385365 0.12941873 0.58000004
0.024868699 0.12941873 0.58000004
0.025794491 0.12897246 0.57800001
0.026806042 0.12897246 0.57800001
0.027913844 0.12941873 0.58000004
0.028978771 0.12964188 0.58100003
0.029943943 0.12941873 0.58000004
0.030958991 0.12941873 0.58000004
0.031918917 0.12919562 0.57900006
0.03304597 0.12964188 0.58100003
0.034062766 0.12964188 0.58100003
0.03495881 0.12919562 0.57900006
0.035909981 0.12897246 0.57800001
0.036921527 0.12897246 0.57800001
0.038064335 0.12941873 0.58000004
0.039146762 0.12964188 0.58100003
0.040163558 0.12964188 0.58100003
0.041180357 0.12964188 0.58100003
0.043139577 0.12941873 0.58000004
0.044078499 0.12919562 0.57900006
0.0450918 0.12919562 0.57900006
0.046105098 0.12919562 0.57900006
0.049314748 0.12964188 0.58100003
0.050418176 0.12986501 0.58200002
0.051348351 0.12964188 0.58100003
0.052365147 0.12964188 0.58100003
0.063549936 0.12964188 0.58100003
0.064566731 0.12964188 0.58100003
0.065696411 0.12986501 0.58200002
0.066714965 0.12986501 0.58200002
0.067500755 0.12941873 0.58000004
0.13550116 0.16221969 0.72700006
0.13658533 0.16199654 0.72600001
0.13766602 0.16177341 0.72500002
0.13893482 0.16177341 0.72500002
0.13981685 0.16132714 0.72300005
0.14108217 0.16132714 0.72300005
0.14175682 0.16065773 0.72000003
0.14281826 0.1604346 0.71900004
0.14327502 0.15954207 0.71500003
0.1443242 0.15931892 0.71400005
0.14557377 0.15931892 0.71400005
0.14661768 0.15909579 0.71300006
0.14745073 0.15864952 0.71100003
0.14806762 0.15798011 0.708
0.14867404 0.15731071 0.70500004
0.14948256 0.15686442 0.70300001
0.15028411 0.15641816 0.70100003
0.15129478 0.15619503 0.70000005
0.15208407 0.15574875 0.69800001
0.15286636 0.15530248 0.69600004
0.15342027 0.15463307 0.69300002
0.15418682 0.15418682 0.69100004
0.15494633 0.15374053 0.68900001
0.15592551 0.1535174 0.68800002
0.15863901 0.15150917 0.67900002
0.006529564 0.12908447 0.574
0.0095930872 0.12975912 0.57700002
0.016661678 0.12975912 0.57700002
0.017702101 0.12998401 0.57800001
0.01874603 0.13020889 0.57900006
0.019759327 0.13020889 0.57900006
0.020700872 0.12975912 0.57700002
0.02171067 0.12975912 0.57700002
0.022759845 0.12998401 0.57800001
0.02385365 0.13043378 0.58000004
0.024825823 0.13020889 0.57900006
0.025749866 0.12975912 0.57700002
0.026713287 0.12953424 0.57600003
0.02781759 0.12998401 0.57800001
0.028928893 0.13043378 0.58000004
0.029943943 0.13043378 0.58000004
0.030852234 0.12998401 0.57800001
0.031808656 0.12975912 0.57700002
0.032875333 0.12998401 0.57800001
0.033945512 0.13020889 0.57900006
0.03489843 0.12998401 0.57800001
0.035847854 0.12975912 0.57700002
0.036793776 0.12953424 0.57600003
0.037933078 0.12998401 0.57800001
0.038944624 0.12998401 0.57800001
0.040025305 0.13020889 0.57900006
0.040896848 0.12975912 0.57700002
0.041906644 0.12975912 0.57700002
0.042916443 0.12975912 0.57700002
0.044002365 0.12998401 0.57800001
0.0450918 0.13020889 0.57900006
0.046184726 0.13043378 0.58000004
0.047118396 0.13020889 0.57900006
0.048131697 0.13020889 0.57900006
0.049144994 0.13020889 0.57900006
0.050244924 0.13043378 0.58000004
0.05117159 0.13020889 0.57900006
0.052275021 0.13043378 0.58000004
0.053290069 0.13043378 0.58000004
0.054305118 0.13043378 0.58000004
0.066485703 0.13043378 0.58000004
0.13512838 0.16304223 0.72500002
0.13639718 0.16304223 0.72500002
0.13747612 0.16281734 0.72400004
0.13855155 0.16259247 0.72300005
0.13943009 0.16214268 0.72100002
0.14049678 0.16191781 0.72000003
0.14155994 0.16169292 0.71900004
0.14242098 0.16124313 0.71700001
0.14327502 0.16079336 0.71500003
0.14412208 0.1603436 0.71300006
0.14516598 0.16011871 0.71200001
0.14600079 0.15966895 0.71000004
0.14682858 0.15921916 0.708
0.14764936 0.1587694 0.70600003
0.14825226 0.15809473 0.70300001
0.14926994 0.15786985 0.70200002
0.15006973 0.15742008 0.70000005
0.15086251 0.15697031 0.69800001
0.15164831 0.15652055 0.69600004
0.15242709 0.15607077 0.69400001
0.15319888 0.15562099 0.69200003
0.15418682 0.1553961 0.69100004
0.15494633 0.15494633 0.68900001
0.15569888 0.15449657 0.68700004
0.15644442 0.1540468 0.68500006
0.15768258 0.15292235 0.68000001
-0.053743336 0.13008901 0.574
0.0055442671 0.13054229 0.57600003
0.0075866152 0.13099556 0.57800001
0.016748307 0.13144884 0.58000004
0.017793981 0.13167547 0.58100003
0.018778404 0.13144884 0.58000004
0.019759327 0.1312222 0.57900006
0.020736748 0.13099556 0.57800001
0.021748297 0.13099556 0.57800001
0.022799224 0.1312222 0.57900006
0.02385365 0.13144884 0.58000004
0.024825823 0.1312222 0.57900006
0.025839122 0.1312222 0.57900006
0.026806042 0.13099556 0.57800001
0.027865719 0.1312222 0.57900006
0.028928893 0.13144884 0.58000004
0.029892316 0.1312222 0.57900006
0.030852234 0.13099556 0.57800001
0.031863786 0.13099556 0.57800001
0.041979268 0.13099556 0.57800001
0.042990819 0.13099556 0.57800001
0.044078499 0.1312222 0.57900006
0.045247555 0.13167547 0.58100003
0.046343982 0.1319021 0.58200002
0.047362532 0.1319021 0.58200002
0.048297953 0.13167547 0.58100003
0.049229875 0.13144884 0.58000004
0.050331552 0.13167547 0.58100003
0.051436726 0.1319021 0.58200002
0.052365147 0.13167547 0.58100003
0.05338195 0.13167547 0.58100003
0.054398745 0.13167547 0.58100003
0.06738437 0.1312222 0.57900006
0.13587391 0.16521758 0.72900003
0.13677347 0.16476431 0.72700006
0.13785589 0.16453767 0.72600001
0.13893482 0.16431104 0.72500002
0.14001025 0.1640844 0.72400004
0.14088704 0.16363114 0.72200006
0.14195371 0.16340449 0.72100002
0.14321552 0.16340449 0.72100002
0.14407657 0.16295123 0.71900004
0.14452633 0.16204469 0.71500003
0.14557377 0.16181804 0.71400005
0.14620642 0.16113813 0.71100003
0.14724334 0.1609115 0.71000004
0.14764936 0.16000496 0.70600003
0.14867404 0.15977833 0.70500004
0.1496952 0.15955169 0.70400006
0.15071288 0.15932503 0.70300001
0.15129478 0.15864515 0.70000005
0.15208407 0.15819186 0.69800001
0.15286636 0.1577386 0.69600004
0.15386304 0.15751198 0.69500005
0.15463307 0.15705869 0.69300002
0.1553961 0.15660542 0.69100004
0.15637879 0.15637879 0.69000006
0.15712957 0.15592551 0.68800002
0.15764323 0.1552456 0.68500006
0.15791449 0.15433906 0.68100005
0.15863901 0.15388578 0.67900002
0.0045440937 0.13177872 0.57700002
0.0055442671 0.13155034 0.57600003
0.016690552 0.13200711 0.57800001
0.017702101 0.13200711 0.57800001
0.018681275 0.13177872 0.57700002
0.019691072 0.13177872 0.57700002
0.020700872 0.13177872 0.57700002
0.021748297 0.13200711 0.57800001
0.022720469 0.13177872 0.57700002
0.023730269 0.13177872 0.57700002
0.024740066 0.13177872 0.57700002
0.025794491 0.13200711 0.57800001
0.02685242 0.13223551 0.57900006
0.02781759 0.13200711 0.57800001
0.028779261 0.13177872 0.57700002
0.029789062 0.13177872 0.57700002
0.03074548 0.13155034 0.57600003
0.031808656 0.13177872 0.57700002
0.032818455 0.13177872 0.57700002
0.040967721 0.13200711 0.57800001
0.041906644 0.13177872 0.57700002
0.042916443 0.13177872 0.57700002
0.044078499 0.13223551 0.57900006
0.045169678 0.13246387 0.58000004
0.046184726 0.13246387 0.58000004
0.047037017 0.13200711 0.57800001
0.048048563 0.13200711 0.57800001
0.048975233 0.13177872 0.57700002
0.05007166 0.13200711 0.57800001
0.05117159 0.13223551 0.57900006
0.052184891 0.13223551 0.57900006
0.053198189 0.13223551 0.57900006
0.054117855 0.13200711 0.57800001
0.055320166 0.13246387 0.58000004
0.056529474 0.13292065 0.58200002
0.13568754 0.16626501 0.72800004
0.13639718 0.16557986 0.72500002
0.13747612 0.16535147 0.72400004
0.13855155 0.16512309 0.72300005
0.13962348 0.1648947 0.72200006
0.14049678 0.16443792 0.72000003
0.14175682 0.16443792 0.72000003
0.14281826 0.16420954 0.71900004
0.1436758 0.16375276 0.71700001
0.1443242 0.16306761 0.71400005
0.14516598 0.16261083 0.71200001
0.14579515 0.16192567 0.70900005
0.14662118 0.16146891 0.70700002
0.1472311 0.16078375 0.70400006
0.14846316 0.16078375 0.70400006
0.14926994 0.16032697 0.70200002
0.15028411 0.1600986 0.70100003
0.15086251 0.15941343 0.69800001
0.1518662 0.15918504 0.69700003
0.15264672 0.15872829 0.69500005
0.15364164 0.15849988 0.69400001
0.15463307 0.15827149 0.69300002
0.15517123 0.15758635 0.69000006
0.15592551 0.15712957 0.68800002
0.15667279 0.15667279 0.68600005
0.15741308 0.15621603 0.68400002
0.15791449 0.15553087 0.68100005
0.15863901 0.15507409 0.67900002
0.15959193 0.15484571 0.67800003
0.003546546 0.13324879 0.57900006
0.0045598447 0.13324879 0.57900006
0.0055538923 0.13278852 0.57700002
0.0065523158 0.13255839 0.57600003
0.015733259 0.13347892 0.58000004
0.016777182 0.13370907 0.58100003
0.017793981 0.13370907 0.58100003
0.01874603 0.13324879 0.57900006
0.019759327 0.13324879 0.57900006
0.020772627 0.13324879 0.57900006
0.021785926 0.13324879 0.57900006
0.023771394 0.13301866 0.57800001
0.024825823 0.13324879 0.57900006
0.025883747 0.13347892 0.58000004
0.027865719 0.13324879 0.57900006
0.028829137 0.13301866 0.57800001
0.029789062 0.13278852 0.57700002
0.03079886 0.13278852 0.57700002
0.036220621 0.13416933 0.583
0.046184726 0.13347892 0.58000004
0.04728115 0.13370907 0.58100003
0.048214823 0.13347892 0.58000004
0.049229875 0.13347892 0.58000004
0.050244924 0.13347892 0.58000004
0.051348351 0.13370907 0.58100003
0.052275021 0.13347892 0.58000004
0.053290069 0.13347892 0.58000004
0.054305118 0.13347892 0.58000004
0.055415545 0.13370907 0.58100003
0.056723733 0.13439947 0.58400005
0.057745785 0.13439947 0.58400005
0.13677347 0.16730894 0.72700006
0.13785589 0.16707879 0.72600001
0.13874319 0.16661853 0.72400004
0.14001025 0.16661853 0.72400004
0.14108217 0.16638839 0.72300005
0.1421506 0.16615826 0.72200006
0.14321552 0.16592811 0.72100002
0.14407657 0.16546786 0.71900004
0.1449306 0.16500756 0.71700001
0.14557377 0.16431718 0.71400005
0.14620642 0.16362676 0.71100003
0.14682858 0.16293633 0.708
0.14764936 0.16247608 0.70600003
0.14888492 0.16247608 0.70600003
0.1496952 0.16201581 0.70400006
0.15049849 0.16155553 0.70200002
0.15129478 0.16109526 0.70000005
0.15208407 0.16063498 0.69800001
0.15308599 0.16040485 0.69700003
0.15386304 0.15994459 0.69500005
0.1548562 0.15971445 0.69400001
0.1553961 0.15902404 0.69100004
0.15660542 0.15902404 0.69100004
0.15712957 0.15833361 0.68800002
0.15787336 0.15787336 0.68600005
0.15837826 0.15718295 0.68300003
0.15910628 0.15672268 0.68100005
0.1600627 0.15649253 0.68000001
0.0035342951 0.13379832 0.57700002
0.0045362189 0.13356644 0.57600003
0.0055442671 0.13356644 0.57600003
0.015706131 0.1342621 0.57900006
0.016719431 0.1342621 0.57900006
0.017702101 0.13403019 0.57800001
0.018713651 0.13403019 0.57800001
0.0197252 0.13403019 0.57800001
0.020772627 0.1342621 0.57900006
0.021785926 0.1342621 0.57900006
0.022759845 0.13403019 0.57800001
0.023730269 0.13379832 0.57700002
0.024782943 0.13403019 0.57800001
0.035019189 0.13449398 0.58000004
0.036034238 0.13449398 0.58000004
0.038129959 0.13472587 0.58100003
0.047037017 0.13403019 0.57800001
0.048048563 0.13403019 0.57800001
0.049060114 0.13403019 0.57800001
0.050158296 0.1342621 0.57900006
0.05117159 0.1342621 0.57900006
0.052184891 0.1342621 0.57900006
0.053106308 0.13403019 0.57800001
0.05421149 0.1342621 0.57900006
0.055224791 0.1342621 0.57900006
0.056529474 0.13495776 0.58200002
0.05744914 0.13472587 0.58100003
0.058264684 0.1342621 0.57900006
0.060395408 0.13449398 0.58000004
0.061622221 0.13495776 0.58200002
0.06253314 0.13472587 0.58100003
0.063549936 0.13472587 0.58100003
0.13658533 0.16834936 0.72600001
0.13747612 0.16788559 0.72400004
0.13835992 0.16742182 0.72200006
0.13962348 0.16742182 0.72200006
0.14069191 0.16718993 0.72100002
0.14175682 0.16695803 0.72000003
0.14261962 0.16649428 0.71800005
0.14347541 0.1660305 0.71600002
0.1443242 0.16556673 0.71400005
0.14516598 0.16510296 0.71200001
0.14579515 0.1644073 0.70900005
0.14662118 0.16394353 0.70700002
0.14764936 0.16371164 0.70600003
0.14867404 0.16347976 0.70500004
0.14948256 0.16301596 0.70300001
0.15028411 0.16255221 0.70100003
0.15107866 0.16208844 0.69900006
0.1518662 0.16162466 0.69700003
0.15264672 0.1611609 0.69500005
0.15319888 0.16046523 0.69200003
0.15418682 0.16023333 0.69100004
0.15494633 0.15976956 0.68900001
0.15592551 0.15953769 0.68800002
0.15621603 0.15861014 0.68400002
0.15718295 0.15837826 0.68300003
0.15814637 0.15814637 0.68200004
0.15863901 0.15745072 0.67900002
0.15959193 0.15721883 0.67800003
0.0035342951 0.13480812 0.57700002
0.0045440937 0.13480812 0.57700002
0.0055442671 0.13457449 0.57600003
0.0065409401 0.13434085 0.57500005
0.014718209 0.13550903 0.58000004
0.015760385 0.13574266 0.58100003
0.016748307 0.13550903 0.58000004
0.01773273 0.13527539 0.57900006
0.018713651 0.13504176 0.57800001
0.019759327 0.13527539 0.57900006
0.020772627 0.13527539 0.57900006
0.021861179 0.13574266 0.58100003
0.022838602 0.13550903 0.58000004
0.023812523 0.13527539 0.57900006
0.024825823 0.13527539 0.57900006
0.032989092 0.13550903 0.58000004
0.034062766 0.13574266 0.58100003
0.035139941 0.13597628 0.58200002
0.036158491 0.13597628 0.58200002
0.037113164 0.13574266 0.58100003
0.038195588 0.13597628 0.58200002
0.039281514 0.13620992 0.583
0.040301815 0.13620992 0.583
0.041180357 0.13574266 0.58100003
0.046184726 0.13550903 0.58000004
0.04728115 0.13574266 0.58100003
0.048297953 0.13574266 0.58100003
0.050244924 0.13550903 0.58000004
0.05117159 0.13527539 0.57900006
0.052094758 0.13504176 0.57800001
0.053198189 0.13527539 0.57900006
0.054305118 0.13550903 0.58000004
0.055415545 0.13574266 0.58100003
0.056529474 0.13597628 0.58200002
0.057646897 0.13620992 0.583
0.058465939 0.13574266 0.58100003
0.059482742 0.13574266 0.58100003
0.060499538 0.13574266 0.58100003
0.06253314 0.13574266 0.58100003
0.06365931 0.13597628 0.58200002
0.13677347 0.16985355 0.72700006
0.13785589 0.16961992 0.72600001
0.13912645 0.16961992 0.72600001
0.14020362 0.16938628 0.72500002
0.14127731 0.16915265 0.72400004
0.14195371 0.16845174 0.72100002
0.14281826 0.16798447 0.71900004
0.14387618 0.16775084 0.71800005
0.1449306 0.16751719 0.71700001
0.14577764 0.16704993 0.71500003
0.14641206 0.16634901 0.71200001
0.14724334 0.16588174 0.71000004
0.14806762 0.16541445 0.708
0.14888492 0.1649472 0.70600003
0.14990786 0.16471356 0.70500004
0.15071288 0.16424628 0.70300001
0.15172707 0.16401264 0.70200002
0.15230197 0.16331175 0.69900006
0.15286636 0.16261084 0.69600004
0.15364164 0.16214356 0.69400001
0.15440993 0.16167629 0.69200003
0.15517123 0.16120902 0.69000006
0.15592551 0.16074173 0.68800002
0.15667279 0.16027448 0.68600005
0.15764323 0.16004084 0.68500006
0.15910628 0.15910628 0.68100005
0.15982732 0.15863901 0.67900002
0.16054136 0.15817176 0.67700005
0.0045283432 0.13534716 0.57500005
0.013655907 0.13605331 0.57800001
0.014667457 0.13605331 0.57800001
0.015706131 0.1362887 0.57900006
0.016690552 0.13605331 0.57800001
0.017671477 0.13581792 0.57700002
0.0186489 0.13558254 0.57600003
0.019691072 0.13581792 0.57700002
0.020736748 0.13605331 0.57800001
0.021785926 0.1362887 0.57900006
0.022799224 0.1362887 0.57900006
0.023771394 0.13605331 0.57800001
0.024782943 0.13605331 0.57800001
0.025794491 0.13605331 0.57800001
0.02685242 0.1362887 0.57900006
0.027865719 0.1362887 0.57900006
0.028928893 0.13652408 0.58000004
0.030958991 0.13652408 0.58000004
0.031863786 0.13605331 0.57800001
0.033886883 0.13605331 0.57800001
0.03495881 0.1362887 0.57900006
0.035972111 0.1362887 0.57900006
0.037049286 0.13652408 0.58000004
0.038064335 0.13652408 0.58000004
0.039079383 0.13652408 0.58000004
0.040163558 0.13675946 0.58100003
0.043065201 0.1362887 0.57900006
0.053014427 0.13581792 0.57700002
0.054117855 0.13605331 0.57800001
0.055129405 0.13605331 0.57800001
0.059277982 0.1362887 0.57900006
0.060395408 0.13652408 0.58000004
0.061516337 0.13675946 0.58100003
0.062425509 0.13652408 0.58000004
0.063440561 0.13652408 0.58000004
0.14088704 0.16994895 0.72200006
0.14175682 0.16947816 0.72000003
0.14242098 0.168772 0.71700001
0.14347541 0.16853662 0.71600002
0.14452633 0.16830122 0.71500003
0.14536989 0.16783047 0.71300006
0.14641206 0.16759506 0.71200001
0.14703596 0.16688891 0.70900005
0.1478585 0.16641814 0.70700002
0.14867404 0.16594736 0.70500004
0.1496952 0.165712 0.70400006
0.15071288 0.16547659 0.70300001
0.15151092 0.16500583 0.70100003
0.1518662 0.16406427 0.69700003
0.15242709 0.16335812 0.69400001
0.15342027 0.16312273 0.69300002
0.15418682 0.16265197 0.69100004
0.15494633 0.16218118 0.68900001
0.15547225 0.16147503 0.68600005
0.15598764 0.16076887 0.68300003
0.15959193 0.15959193 0.67800003
0.16030423 0.15912117 0.67600006
0.014718209 0.13753912 0.58000004
0.015733259 0.13753912 0.58000004
0.016719431 0.137302 0.57900006
0.017702101 0.13706484 0.57800001
0.018681275 0.13682771 0.57700002
0.0197252 0.13706484 0.57800001
0.020772627 0.137302 0.57900006
0.021823552 0.13753912 0.58000004
0.022799224 0.137302 0.57900006
0.023812523 0.137302 0.57900006
0.024825823 0.137302 0.57900006
0.027961973 0.13777626 0.58100003
0.029028647 0.13801339 0.58200002
0.029995572 0.13777626 0.58100003
0.031065747 0.13801339 0.58200002
0.03197404 0.13753912 0.58000004
0.032989092 0.13753912 0.58000004
0.033945512 0.137302 0.57900006
0.035019189 0.13753912 0.58000004
0.036034238 0.13753912 0.58000004
0.037113164 0.13777626 0.58100003
0.038129959 0.13777626 0.58100003
0.039146762 0.13777626 0.58100003
0.040163558 0.13777626 0.58100003
0.041251238 0.13801339 0.58200002
0.04219716 0.13777626 0.58100003
0.043288335 0.13801339 0.58200002
0.044230755 0.13777626 0.58100003
0.045247555 0.13777626 0.58100003
0.046264354 0.13777626 0.58100003
0.04728115 0.13777626 0.58100003
0.1421506 0.17121251 0.72200006
0.14301689 0.17073822 0.72000003
0.14387618 0.17026396 0.71800005
0.14513275 0.17026396 0.71800005
0.14618541 0.17002681 0.71700001
0.14702895 0.16955255 0.71500003
0.14765811 0.16884112 0.71200001
0.14827678 0.16812973 0.70900005
0.1490958 0.16765544 0.70700002
0.15012048 0.16741832 0.70600003
0.15092728 0.16694404 0.70400006
0.15151092 0.16623263 0.70100003
0.15230197 0.16575837 0.69900006
0.15330562 0.16552122 0.69800001
0.15408443 0.16504696 0.69600004
0.1548562 0.16457267 0.69400001
0.1553961 0.16386127 0.69100004
0.15592551 0.16314986 0.68800002
0.15667279 0.16267559 0.68600005
0.16077849 0.16077849 0.67800003
-0.054747887 0.13712084 0.574
0.013655907 0.13807639 0.57800001
0.014667457 0.13807639 0.57800001
0.015706131 0.13831529 0.57900006
0.016690552 0.13807639 0.57800001
0.017671477 0.13783751 0.57700002
0.0186489 0.13759863 0.57600003
0.019691072 0.13783751 0.57700002
0.020700872 0.13783751 0.57700002
0.021673044 0.13759863 0.57600003
0.023730269 0.13783751 0.57700002
0.02685242 0.13831529 0.57900006
0.027865719 0.13831529 0.57900006
0.028879017 0.13831529 0.57900006
0.029840687 0.13807639 0.57800001
0.030852234 0.13807639 0.57800001
0.031918917 0.13831529 0.57900006
0.032932211 0.13831529 0.57900006
0.035972111 0.13831529 0.57900006
0.037049286 0.13855417 0.58000004
0.038064335 0.13855417 0.58000004
0.039012007 0.13831529 0.57900006
0.040094431 0.13855417 0.58000004
0.04110948 0.13855417 0.58000004
0.042124528 0.13855417 0.58000004
0.043065201 0.13831529 0.57900006
0.044154629 0.13855417 0.58000004
0.045169678 0.13855417 0.58000004
0.046184726 0.13855417 0.58000004
0.047118396 0.13831529 0.57900006
0.048214823 0.13855417 0.58000004
0.1421506 0.17247607 0.72200006
0.14301689 0.17199829 0.72000003
0.14387618 0.17152052 0.71800005
0.1449306 0.17128162 0.71700001
0.14557377 0.17056496 0.71400005
0.14641206 0.17008719 0.71200001
0.14724334 0.16960943 0.71000004
0.1478585 0.16889276 0.70700002
0.1490958 0.16889276 0.70700002
0.14990786 0.168415 0.70500004
0.15049849 0.16769832 0.70200002
0.15107866 0.16698167 0.69900006
0.15208407 0.16674277 0.69800001
0.15308599 0.16650389 0.69700003
0.15364164 0.16578723 0.69400001
0.15440993 0.16530947 0.69200003
0.15494633 0.1645928 0.68900001
0.15547225 0.16387615 0.68600005
0.15621603 0.16339837 0.68400002
-0.054843269 0.13836604 0.57500005
-0.053930599 0.13860668 0.57600003
-0.0015120729 0.13860668 0.57600003
-0.0005048993 0.13884731 0.57700002
0.0015094478 0.13836604 0.57500005
0.0085832877 0.13884731 0.57700002
0.01370316 0.13956922 0.58000004
0.014692834 0.1393286 0.57900006
0.015733259 0.13956922 0.58000004
0.016690552 0.13908795 0.57800001
0.017702101 0.13908795 0.57800001
0.018713651 0.13908795 0.57800001
0.0197252 0.13908795 0.57800001
0.020700872 0.13884731 0.57700002
0.021635419 0.13836604 0.57500005
0.022681093 0.13860668 0.57600003
0.027913844 0.13956922 0.58000004
0.028928893 0.13956922 0.58000004
0.029840687 0.13908795 0.57800001
0.030852234 0.13908795 0.57800001
0.031918917 0.1393286 0.57900006
0.032989092 0.13956922 0.58000004
0.034062766 0.13980986 0.58100003
0.035019189 0.13956922 0.58000004
0.036034238 0.13956922 0.58000004
0.037113164 0.13980986 0.58100003
0.038129959 0.13980986 0.58100003
0.039146762 0.13980986 0.58100003
0.040094431 0.13956922 0.58000004
0.04110948 0.13956922 0.58000004
0.0420519 0.1393286 0.57900006
0.043065201 0.1393286 0.57900006
0.044078499 0.1393286 0.57900006
0.045247555 0.13980986 0.58100003
0.046264354 0.13980986 0.58100003
0.065922178 0.14053178 0.58400005
0.066944227 0.14053178 0.58400005
0.06808266 0.14077242 0.58500004
0.068988323 0.14053178 0.58400005
0.14254437 0.17422089 0.72400004
0.14341417 0.17373963 0.72200006
0.14427695 0.17325835 0.72000003
0.14513275 0.17277707 0.71800005
0.14577764 0.17205517 0.71500003
0.14661768 0.17157389 0.71300006
0.14745073 0.17109261 0.71100003
0.14827678 0.17061135 0.70900005
0.14930668 0.1703707 0.708
0.15012048 0.16988944 0.70600003
0.15092728 0.16940817 0.70400006
0.15172707 0.16892688 0.70200002
0.15251985 0.16844562 0.70000005
0.15352528 0.16820499 0.69900006
0.15408443 0.16748306 0.69600004
0.15463307 0.16676116 0.69300002
0.15494633 0.1657986 0.68900001
0.15569888 0.16531733 0.68700004
0.15667279 0.1650767 0.68600005
0.15718295 0.1643548 0.68300003
0.16242969 0.16242969 0.67500001
0.16336863 0.16218907 0.67400002
-0.055752434 0.13912995 0.574
-0.054652505 0.13888757 0.57300001
-0.00050314923 0.13937233 0.57500005
0.014642079 0.13985711 0.57700002
0.015706131 0.14034189 0.57900006
0.016632801 0.13961473 0.57600003
0.017671477 0.13985711 0.57700002
0.0186489 0.13961473 0.57600003
0.019656947 0.13961473 0.57600003
0.020593241 0.13912995 0.574
0.021560162 0.13888757 0.57300001
0.022602338 0.13912995 0.574
0.026759664 0.13985711 0.57700002
0.02781759 0.1400995 0.57800001
0.028829137 0.1400995 0.57800001
0.029789062 0.13985711 0.57700002
0.030692106 0.13937233 0.57500005
0.031753529 0.13961473 0.57600003
0.03495881 0.14034189 0.57900006
0.036034238 0.14058428 0.58000004
0.037049286 0.14058428 0.58000004
0.038129959 0.14082666 0.58100003
0.039012007 0.14034189 0.57900006
0.040025305 0.14034189 0.57900006
0.040896848 0.13985711 0.57700002
0.041979268 0.1400995 0.57800001
0.042916443 0.13985711 0.57700002
0.043926239 0.13985711 0.57700002
0.045013916 0.1400995 0.57800001
0.046105098 0.14034189 0.57900006
0.047118396 0.14034189 0.57900006
0.066829592 0.14131142 0.583
0.067849889 0.14131142 0.583
0.068870194 0.14131142 0.583
0.14234748 0.17524557 0.72300005
0.14321552 0.17476079 0.72100002
0.14427695 0.17451841 0.72000003
0.1449306 0.17379124 0.71700001
0.14536989 0.17282172 0.71300006
0.14620642 0.17233692 0.71100003
0.14703596 0.17185216 0.70900005
0.1478585 0.17136738 0.70700002
0.14867404 0.17088261 0.70500004
0.1496952 0.17064022 0.70400006
0.15049849 0.17015545 0.70200002
0.15151092 0.16991307 0.70100003
0.15230197 0.16942829 0.69900006
0.15308599 0.16894351 0.69700003
0.15386304 0.16845874 0.69500005
0.15418682 0.1674892 0.69100004
0.15494633 0.16700441 0.68900001
0.15547225 0.16627727 0.68600005
0.15644442 0.16603488 0.68500006
0.16218907 0.16336863 0.67400002
0.16288385 0.16288385 0.67200005
0.16357163 0.16239907 0.67000002
-0.056043826 0.14086691 0.57700002
-0.054843269 0.14037865 0.57500005
-0.053649709 0.13989036 0.57300001
-0.0025157463 0.14037865 0.57500005
-0.0015120729 0.14062278 0.57600003
0.0096263392 0.14135519 0.57900006
0.014692834 0.14135519 0.57900006
0.015733259 0.14159933 0.58000004
0.016690552 0.14111105 0.57800001
0.01773273 0.14135519 0.57900006
0.018713651 0.14111105 0.57800001
0.0197252 0.14111105 0.57800001
0.021635419 0.14037865 0.57500005
0.028928893 0.14159933 0.58000004
0.029943943 0.14159933 0.58000004
0.030905616 0.14135519 0.57900006
0.036034238 0.14159933 0.58000004
0.037113164 0.14184347 0.58100003
0.038129959 0.14184347 0.58100003
0.039079383 0.14159933 0.58000004
0.040025305 0.14135519 0.57900006
0.041038606 0.14135519 0.57900006
0.052545402 0.14233172 0.583
0.054492373 0.14208759 0.58200002
0.055510923 0.14208759 0.58200002
0.056626599 0.14233172 0.583
0.057745785 0.14257587 0.58400005
0.058667198 0.14233172 0.583
0.059789881 0.14257587 0.58400005
0.060916062 0.14282002 0.58500004
0.062045742 0.14306414 0.58600003
0.062963657 0.14282002 0.58500004
0.063987464 0.14282002 0.58500004
0.06490013 0.14257587 0.58400005
0.065922178 0.14257587 0.58400005
0.066944227 0.14257587 0.58400005
0.067966275 0.14257587 0.58400005
0.068988323 0.14257587 0.58400005
0.070130251 0.14282002 0.58500004
0.14274125 0.17699915 0.72500002
0.14381143 0.17675503 0.72400004
0.14467773 0.17626674 0.72200006
0.14533487 0.17553434 0.71900004
0.14577764 0.17455779 0.71500003
0.14661768 0.17406952 0.71300006
0.14765811 0.17382537 0.71200001
0.1484859 0.1733371 0.71000004
0.1490958 0.17260468 0.70700002
0.15012048 0.17236055 0.70600003
0.15114166 0.17211641 0.70500004
0.15215933 0.17187229 0.70400006
0.15273774 0.17113987 0.70100003
0.15352528 0.1706516 0.69900006
0.1543058 0.17016332 0.69700003
0.15463307 0.16918677 0.69300002
0.1553961 0.1686985 0.69100004
0.15615214 0.16821022 0.68900001
0.15712957 0.1679661 0.68800002
0.15741308 0.16698954 0.68400002
0.16336863 0.16454817 0.67400002
0.16430405 0.16430405 0.67300004
0.0095930872 0.14187671 0.57700002
0.015706131 0.1423685 0.57900006
0.016661678 0.14187671 0.57700002
0.017671477 0.14187671 0.57700002
0.0186489 0.14163081 0.57600003
0.035972111 0.1423685 0.57900006
0.036985409 0.1423685 0.57900006
0.038064335 0.14261438 0.58000004
0.039012007 0.1423685 0.57900006
0.039956175 0.14212258 0.57800001
0.040967721 0.14212258 0.57800001
0.053290069 0.14261438 0.58000004
0.054305118 0.14261438 0.58000004
0.055415545 0.14286025 0.58100003
0.056529474 0.14310615 0.58200002
0.05744914 0.14286025 0.58100003
0.059380364 0.14261438 0.58000004
0.060603671 0.14310615 0.58200002
0.061728094 0.14335202 0.583
0.062748395 0.14335202 0.583
0.06365931 0.14310615 0.58200002
0.064677864 0.14310615 0.58200002
0.065696411 0.14310615 0.58200002
0.066829592 0.14335202 0.583
0.067849889 0.14335202 0.583
0.068988323 0.14359793 0.58400005
0.12572432 0.1775303 0.72200006
0.14127731 0.17802209 0.72400004
0.14234748 0.17777619 0.72300005
0.14341417 0.1775303 0.72200006
0.14447734 0.1772844 0.72100002
0.14513275 0.17654675 0.71800005
0.14557377 0.17556322 0.71400005
0.14641206 0.17507143 0.71200001
0.14745073 0.17482553 0.71100003
0.14827678 0.17433378 0.70900005
0.1490958 0.173842 0.70700002
0.1496952 0.17310435 0.70400006
0.15071288 0.17285845 0.70300001
0.15151092 0.17236668 0.70100003
0.15251985 0.17212079 0.70000005
0.15330562 0.17162901 0.69800001
0.15408443 0.17113724 0.69600004
0.15440993 0.17015369 0.69200003
0.15494633 0.16941604 0.68900001
0.15592551 0.16917014 0.68800002
0.15690118 0.16892427 0.68700004
0.15764323 0.16843249 0.68500006
0.16124839 0.16597362 0.67500001
0.16218907 0.16572773 0.67400002
0.16288385 0.16523597 0.67200005
0.16405991 0.16523597 0.67200005
0.015760385 0.14387706 0.58100003
0.016719431 0.14338179 0.57900006
0.01773273 0.14338179 0.57900006
0.01874603 0.14338179 0.57900006
0.036034238 0.14362943 0.58000004
0.036985409 0.14338179 0.57900006
0.037998706 0.14338179 0.57900006
0.054492373 0.14412469 0.58200002
0.058465939 0.14387706 0.58100003
0.059482742 0.14387706 0.58100003
0.060499538 0.14387706 0.58100003
0.061728094 0.14437231 0.583
0.062748395 0.14437231 0.583
0.063768692 0.14437231 0.583
0.064677864 0.14412469 0.58200002
0.065696411 0.14412469 0.58200002
0.066829592 0.14437231 0.583
0.12422098 0.18027969 0.72800004
0.12532267 0.18003204 0.72700006
0.12624671 0.17953677 0.72500002
0.14274125 0.17953677 0.72500002
0.1436128 0.1790415 0.72300005
0.14447734 0.17854622 0.72100002
0.14577764 0.17706041 0.71500003
0.14641206 0.17631748 0.71200001
0.14745073 0.17606986 0.71100003
0.1484859 0.17582221 0.71000004
0.14951758 0.17557459 0.70900005
0.15033312 0.1750793 0.70700002
0.15114166 0.17458405 0.70500004
0.15172707 0.17384112 0.70200002
0.15251985 0.17334585 0.70000005
0.15330562 0.17285056 0.69800001
0.15386304 0.17210767 0.69500005
0.15440993 0.17136475 0.69200003
0.15494633 0.17062184 0.68900001
0.15615214 0.17062184 0.68900001
0.15712957 0.17037421 0.68800002
0.1581035 0.17012657 0.68700004
0.15861014 0.16938366 0.68400002
0.16336863 0.16690728 0.67400002
0.016661678 0.14389631 0.57700002
0.027913844 0.14464448 0.58000004
0.035909981 0.14414568 0.57800001
0.03685765 0.14389631 0.57700002
0.037933078 0.14414568 0.57800001
0.059277982 0.14439508 0.57900006
0.060291283 0.14439508 0.57900006
0.061516337 0.14489385 0.58100003
0.06253314 0.14489385 0.58100003
0.063549936 0.14489385 0.58100003
0.064455606 0.14464448 0.58000004
0.065583535 0.14489385 0.58100003
0.067966275 0.14564203 0.58400005
0.12294693 0.18155375 0.72800004
0.12405036 0.18130437 0.72700006
0.12515028 0.18105496 0.72600001
0.12607257 0.18055619 0.72400004
0.14557377 0.17806233 0.71400005
0.14620642 0.17731416 0.71100003
0.14724334 0.17706478 0.71000004
0.14827678 0.17681541 0.70900005
0.14930668 0.17656599 0.708
0.15012048 0.17606723 0.70600003
0.15092728 0.17556846 0.70400006
0.15151092 0.17482029 0.70100003
0.15230197 0.17432152 0.69900006
0.15308599 0.17382275 0.69700003
0.15364164 0.17307459 0.69400001
0.15418682 0.17232643 0.69100004
0.15472145 0.17157826 0.68800002
0.15592551 0.17157826 0.68800002
0.15667279 0.17107949 0.68600005
0.15764323 0.17083012 0.68500006
0.16172618 0.168835 0.67700005
0.16242969 0.16833623 0.67500001
-0.00050402427 0.14465497 0.57600003
0.043511473 0.1469152 0.58500004
0.044383012 0.14641292 0.583
0.049654268 0.1469152 0.58500004
0.061833985 0.14666407 0.58400005
0.062748395 0.14641292 0.583
0.063768692 0.14641292 0.583
0.064566731 0.14591065 0.58100003
0.065809295 0.14641292 0.583
0.12532267 0.18257667 0.72700006
0.12624671 0.1820744 0.72500002
0.12716375 0.18157212 0.72300005
0.1484859 0.17830734 0.71000004
0.14930668 0.17780505 0.708
0.15033312 0.17755394 0.70700002
0.15114166 0.17705165 0.70500004
0.15194319 0.17654938 0.70300001
0.15251985 0.17579597 0.70000005
0.15330562 0.17529368 0.69800001
0.15386304 0.17454028 0.69500005
0.15463307 0.17403801 0.69300002
0.15562099 0.17378686 0.69200003
0.15660542 0.17353573 0.69100004
0.15712957 0.17278232 0.68800002
0.15764323 0.17202891 0.68500006
0.15837826 0.17152664 0.68300003
0.16267033 0.16976869 0.67600006
0.16312623 0.16901527 0.67300004
-0.055034027 0.1459159 0.57700002
-0.0015120729 0.14566301 0.57600003
-0.00050314923 0.14541014 0.57500005
0.025883747 0.14667457 0.58000004
0.02685242 0.14642169 0.57900006
0.027865719 0.14642169 0.57900006
0.032029167 0.14692746 0.58100003
0.032989092 0.14667457 0.58000004
0.033886883 0.1461688 0.57800001
0.035019189 0.14667457 0.58000004
0.043213956 0.14692746 0.58100003
0.044230755 0.14692746 0.58100003
0.045247555 0.14692746 0.58100003
0.046264354 0.14692746 0.58100003
0.04728115 0.14692746 0.58100003
0.048381079 0.14718033 0.58200002
0.15440993 0.17499793 0.69200003
0.1553961 0.17474505 0.69100004
0.15615214 0.17423926 0.68900001
0.15690118 0.1737335 0.68700004
0.16148728 0.17095174 0.67600006
0.1617078 0.16994019 0.67200005
-0.0025244968 0.1469257 0.57700002
-0.0015146979 0.1469257 0.57700002
-0.00050402427 0.14667107 0.57600003
0.0005048993 0.1469257 0.57700002
0.022917353 0.14819889 0.58200002
0.023894776 0.14794426 0.58100003
0.024911575 0.14794426 0.58100003
0.025928374 0.14794426 0.58100003
0.026898796 0.14768963 0.58000004
0.032139421 0.14845352 0.583
0.033102844 0.14819889 0.58200002
0.033945512 0.14743498 0.57900006
0.035079565 0.14794426 0.58100003
0.036158491 0.14819889 0.58200002
0.041322112 0.14845352 0.583
0.042269785 0.14819889 0.58200002
0.043288335 0.14819889 0.58200002
0.044383012 0.14845352 0.583
0.045403309 0.14845352 0.583
0.047443911 0.14845352 0.583
0.048547339 0.14870816 0.58400005
0.049569391 0.14870816 0.58400005
0.15592551 0.17519043 0.68800002
0.15690118 0.1749358 0.68700004
0.16218907 0.17162551 0.67400002
0.16288385 0.17111625 0.67200005
-0.0025201214 0.14767911 0.57600003
-0.0015094478 0.14742273 0.57500005
0.022799224 0.14844829 0.57900006
0.023812523 0.14844829 0.57900006
0.024825823 0.14844829 0.57900006
0.025839122 0.14844829 0.57900006
0.02685242 0.14844829 0.57900006
0.027865719 0.14844829 0.57900006
0.03197404 0.14870468 0.58000004
0.032932211 0.14844829 0.57900006
0.033886883 0.14819188 0.57800001
0.03495881 0.14844829 0.57900006
0.037113164 0.14896105 0.58100003
0.042124528 0.14870468 0.58000004
0.043139577 0.14870468 0.58000004
0.044230755 0.14896105 0.58100003
0.045325432 0.14921743 0.58200002
0.046343982 0.14921743 0.58200002
0.047362532 0.14921743 0.58200002
0.048297953 0.14896105 0.58100003
0.049314748 0.14896105 0.58100003
0.050331552 0.14896105 0.58100003
0.051436726 0.14921743 0.58200002
0.052455276 0.14921743 0.58200002
-0.00050402427 0.14868717 0.57600003
0.022799224 0.14946158 0.57900006
0.02385365 0.14971972 0.58000004
0.024911575 0.14997785 0.58100003
0.025928374 0.14997785 0.58100003
0.031065747 0.15023598 0.58200002
0.03304597 0.14997785 0.58100003
0.034004141 0.14971972 0.58000004
0.04219716 0.14997785 0.58100003
0.048297953 0.14997785 0.58100003
0.010658014 0.15073477 0.58000004
0.011652937 0.15047488 0.57900006
0.021785926 0.15047488 0.57900006
0.022799224 0.15047488 0.57900006
0.023812523 0.15047488 0.57900006
0.024825823 0.15047488 0.57900006
0.025839122 0.15047488 0.57900006
0.031012369 0.15099464 0.58100003
0.04728115 0.15099464 0.58100003
0.048214823 0.15073477 0.58000004
0.049229875 0.15073477 0.58000004
0.010694765 0.15227309 0.58200002
0.020880256 0.15227309 0.58200002
0.023894776 0.15201145 0.58100003
0.024825823 0.15148818 0.57900006
0.069460839 0.1538429 0.588
0.070489891 0.1538429 0.588
0.071397312 0.15358126 0.58700001
0.098914757 0.18837908 0.72000003
0.1000357 0.18811744 0.71900004
0.011652937 0.15250148 0.57900006
0.023812523 0.15250148 0.57900006
0.06808266 0.15408179 0.58500004
0.06910646 0.15408179 0.58500004
0.070130251 0.15408179 0.58500004
0.071275681 0.15434518 0.58600003
0.09666241 0.19016592 0.72200006
0.097654708 0.18963912 0.72000003
0.098640002 0.18911237 0.71800005
0.099757425 0.18884896 0.71700001
0.10073048 0.1883222 0.71500003
0.046503242 0.15484045 0.58400005
0.04752529 0.15484045 0.58400005
0.048547339 0.15484045 0.58400005
0.067173488 0.15537074 0.58600003
0.068199039 0.15537074 0.58600003
0.069224581 0.15537074 0.58600003
0.070250139 0.15537074 0.58600003
0.095530979 0.19169462 0.72300005
0.098061606 0.19169462 0.72300005
0.099189535 0.19142948 0.72200006
0.1000357 0.19063406 0.71900004
0.10115313 0.19036892 0.71800005
0.10212442 0.18983865 0.71600002
0.018778404 0.15479496 0.58000004
0.019793453 0.15479496 0.58000004
0.049399629 0.15532874 0.58200002
0.067966275 0.15586251 0.58400005
0.06910646 0.1561294 0.58500004
0.070010372 0.15586251 0.58400005
0.096394643 0.19215925 0.72000003
0.097654708 0.19215925 0.72000003
0.098914757 0.19215925 0.72000003
0.099896565 0.19162549 0.71800005
0.10101224 0.19135858 0.71700001
0.10212442 0.1910917 0.71600002
0.10308871 0.19055794 0.71400005
0.10389988 0.18975727 0.71100003
0.038326848 0.15688455 0.58400005
0.070130251 0.1571532 0.58500004
0.095266715 0.19368795 0.72100002
0.09666241 0.1939566 0.72200006
0.097925976 0.1939566 0.72200006
0.098914757 0.19341932 0.72000003
0.1000357 0.19315068 0.71900004
0.10115313 0.19288205 0.71800005
0.10226705 0.19261339 0.71700001
0.10337748 0.19234477 0.71600002
0.10419215 0.19153886 0.71300006
0.053749464 0.158177 0.58500004
0.096260764 0.19440898 0.71900004
0.097519077 0.19440898 0.71900004
0.098502614 0.19386822 0.71700001
0.099757425 0.19386822 0.71700001
0.10101224 0.19386822 0.71700001
0.10212442 0.19359782 0.71600002
0.1032331 0.19332744 0.71500003
0.10404601 0.19251627 0.71200001
0.031279258 0.15947293 0.58600003
0.032249682 0.1592008 0.58500004
0.033273477 0.1592008 0.58500004
0.053749464 0.1592008 0.58500004
0.054773264 0.1592008 0.58500004
0.095266715 0.19621158 0.72100002
0.09666241 0.19648373 0.72200006
0.097925976 0.19648373 0.72200006
0.098914757 0.19593944 0.72000003
0.1000357 0.1956673 0.71900004
0.10115313 0.19539517 0.71800005
0.10226705 0.19512302 0.71700001
0.10337748 0.19485089 0.71600002
0.10433827 0.19430661 0.71400005
0.10514419 0.19349019 0.71100003
0.10964279 0.19049668 0.70000005
0.030202081 0.1602246 0.58500004
0.031119123 0.15967682 0.583
0.034180019 0.15967682 0.583
0.053657584 0.15995072 0.58400005
0.054679636 0.15995072 0.58400005
0.055701684 0.15995072 0.58400005
0.056626599 0.15967682 0.583
0.057745785 0.15995072 0.58400005
0.05886846 0.1602246 0.58500004
0.096394643 0.19719951 0.72000003
0.097519077 0.19692561 0.71900004
0.098777384 0.19692561 0.71900004
0.099896565 0.19665174 0.71800005
0.10101224 0.19637783 0.71700001
0.10183915 0.19555616 0.71400005
0.10294434 0.1952823 0.71300006
0.10389988 0.19473451 0.71100003
0.10514419 0.19473451 0.71100003
0.1059396 0.19391283 0.708
0.1085726 0.19199562 0.70100003
0.028154483 0.16124839 0.58500004
0.029228156 0.16152403 0.58600003
0.030202081 0.16124839 0.58500004
0.031172505 0.16097276 0.58400005
0.032139421 0.16069712 0.583
0.054679636 0.16097276 0.58400005
0.095002457 0.19818392 0.71900004
0.09666241 0.19901085 0.72200006
0.098061606 0.19928648 0.72300005
0.099189535 0.19901085 0.72200006
0.10017482 0.19845955 0.72000003
0.10101224 0.19763263 0.71700001
0.10183915 0.19680573 0.71400005
0.10279995 0.19625445 0.71200001
0.10389988 0.19597882 0.71100003
0.10514419 0.19597882 0.71100003
0.10608923 0.19542755 0.70900005
0.1068759 0.19460063 0.70600003
0.10765206 0.1937737 0.70300001
0.1085726 0.19322243 0.70100003
0.11153725 0.18991476 0.68900001
0.028106354 0.16199481 0.58400005
0.029128404 0.16199481 0.58400005
0.030098824 0.16171741 0.583
0.031065747 0.16144001 0.58200002
0.032084294 0.16144001 0.58200002
0.041463871 0.16227219 0.58500004
0.042487673 0.16227219 0.58500004
0.096394643 0.19971962 0.72000003
0.097790338 0.19999701 0.72100002
0.098914757 0.19971962 0.72000003
0.099896565 0.19916485 0.71800005
0.10073048 0.19833268 0.71500003
0.10155389 0.19750051 0.71200001
0.10251119 0.19694574 0.71000004
0.10375375 0.19694574 0.71000004
0.10484843 0.19666836 0.70900005
0.10810795 0.19361708 0.69800001
0.10885962 0.19278492 0.69500005
0.10975916 0.19223012 0.69300002
0.11065171 0.19167536 0.69100004
0.11153725 0.19112058 0.68900001
0.02917828 0.16329598 0.58500004
0.041605629 0.16385427 0.58700001
0.042487673 0.16329598 0.58500004
0.043437093 0.16301686 0.58400005
0.068431795 0.1641334 0.588
0.071640581 0.16441256 0.58900005
0.09666241 0.20153797 0.72200006
0.098061606 0.2018171 0.72300005
0.099189535 0.20153797 0.72200006
0.10017482 0.20097968 0.72000003
0.10101224 0.20014226 0.71700001
0.10198179 0.19958399 0.71500003
0.10308871 0.19930486 0.71400005
0.10419215 0.19902572 0.71300006
0.10514419 0.19846743 0.71100003
0.1059396 0.19763002 0.708
0.10991754 0.19372207 0.69400001
0.11097196 0.19344294 0.69300002
0.11186101 0.19288467 0.69100004
0.11257942 0.19204724 0.68800002
0.11312194 0.19093069 0.68400002
0.11398474 0.19037242 0.68200004
0.11484053 0.18981414 0.68000001
0.11620123 0.19009328 0.68100005
0.041463871 0.1643198 0.58500004
0.042415045 0.16403891 0.58400005
0.043362711 0.16375801 0.583
0.097790338 0.20252062 0.72100002
0.098914757 0.20223974 0.72000003
0.099896565 0.20167796 0.71800005
0.10087135 0.20111619 0.71600002
0.10212442 0.20111619 0.71600002
0.10308871 0.20055442 0.71400005
0.10419215 0.20027353 0.71300006
0.10499631 0.19943087 0.71000004
0.10608923 0.19914998 0.70900005
0.10991754 0.19493663 0.69400001
0.11065171 0.19409399 0.69100004
0.11169913 0.1938131 0.69000006
0.11257942 0.19325131 0.68800002
0.11312194 0.19212775 0.68400002
0.11398474 0.19156598 0.68200004
0.11484053 0.19100419 0.68000001
0.11603059 0.19100419 0.68000001
0.11653112 0.18988065 0.67600006
0.013797665 0.16506097 0.58400005
0.041605629 0.16590886 0.58700001
0.096796297 0.20434773 0.72300005
0.098061606 0.20434773 0.72300005
0.099189535 0.20406508 0.72200006
0.1000357 0.20321716 0.71900004
0.10115313 0.20293453 0.71800005
0.10240969 0.20293453 0.71800005
0.10337748 0.20236924 0.71600002
0.10433827 0.20180397 0.71400005
0.10514419 0.20095606 0.71100003
0.10638849 0.20095606 0.71100003
0.10748143 0.20067342 0.71000004
0.10841772 0.20010814 0.708
0.11097196 0.19586855 0.69300002
0.11186101 0.19530328 0.69100004
0.11257942 0.19445537 0.68800002
0.11345272 0.19389009 0.68600005
0.114319 0.1933248 0.68400002
0.11500942 0.1924769 0.68100005
0.11585995 0.19191161 0.67900002
0.1167035 0.19134635 0.67700005
0.11754003 0.19078106 0.67500001
0.12876245 0.18484566 0.65400004
0.012753739 0.1657986 0.583
0.013750413 0.16551423 0.58200002
0.022996109 0.16608301 0.58400005
0.024018157 0.16608301 0.58400005
0.032194551 0.16608301 0.58400005
0.097925976 0.20532866 0.72200006
0.099052146 0.20504425 0.72100002
0.1000357 0.20447548 0.71900004
0.10101224 0.2039067 0.71700001
0.10212442 0.20362231 0.71600002
0.10308871 0.20305353 0.71400005
0.10404601 0.20248476 0.71200001
0.10484843 0.20163159 0.70900005
0.10608923 0.20163159 0.70900005
0.10717866 0.2013472 0.708
0.10826459 0.20106281 0.70700002
0.11081184 0.19679698 0.69200003
0.11169913 0.19622821 0.69000006
0.11257942 0.19565943 0.68800002
0.11345272 0.19509065 0.68600005
0.114319 0.19452186 0.68400002
0.11484053 0.1933843 0.68000001
0.11568932 0.19281553 0.67800003
0.1167035 0.19253115 0.67700005
0.11754003 0.19196236 0.67500001
0.11836958 0.19139358 0.67300004
0.12551342 0.18798092 0.66100001
0.1264786 0.18769655 0.66000003
0.12724689 0.18712777 0.65800005
0.12800817 0.18655899 0.65600002
0.12836868 0.18542144 0.65200001
0.048796725 0.16796346 0.58700001
0.049824025 0.16796346 0.58700001
0.050851326 0.16796346 0.58700001
0.051790245 0.16767733 0.58600003
0.052815795 0.16767733 0.58600003
0.098197237 0.20716448 0.72400004
0.099326916 0.20687835 0.72300005
0.10017482 0.20601992 0.72000003
0.10129401 0.20573378 0.71900004
0.10226705 0.2051615 0.71700001
0.1032331 0.20458923 0.71500003
0.10419215 0.20401695 0.71300006
0.10499631 0.20315854 0.71000004
0.10623886 0.20315854 0.71000004
0.10717866 0.20258625 0.708
0.10826459 0.20230012 0.70700002
0.11097196 0.19829418 0.69300002
0.11202289 0.19800805 0.69200003
0.11290669 0.19743577 0.69000006
0.11378347 0.19686349 0.68800002
0.11448614 0.19600508 0.68500006
0.1151783 0.19514665 0.68200004
0.11603059 0.19457437 0.68000001
0.11704826 0.19428822 0.67900002
0.11806244 0.19400209 0.67800003
0.11889723 0.19342983 0.67600006
0.11954738 0.1925714 0.67300004
0.12782703 0.18913773 0.66100001
0.12859358 0.18856546 0.65900004
0.12895933 0.1874209 0.65500003
0.1293111 0.18627635 0.65100002
0.097925976 0.20785578 0.72200006
0.098914757 0.20727998 0.72000003
0.099896565 0.20670421 0.71800005
0.10101224 0.20641631 0.71700001
0.10226705 0.20641631 0.71700001
0.10308871 0.20555267 0.71400005
0.10404601 0.20497687 0.71200001
0.10499631 0.20440109 0.71000004
0.1059396 0.20382531 0.708
0.11097196 0.19950698 0.69300002
0.11186101 0.19893122 0.69100004
0.11290669 0.19864333 0.69000006
0.1136181 0.19777966 0.68700004
0.11465328 0.19749177 0.68600005
0.11551607 0.19691598 0.68400002
0.11620123 0.19605231 0.68100005
0.11704826 0.19547653 0.67900002
0.11754003 0.19432497 0.67500001
0.11854546 0.19403709 0.67400002
0.11936976 0.19346133 0.67200005
0.1270535 0.19087033 0.66300005
0.12763365 0.19000666 0.66000003
0.12859358 0.18971877 0.65900004
0.12876245 0.18827933 0.65400004
0.1293111 0.18741564 0.65100002
0.12944849 0.18597621 0.64600003
0.12997264 0.18511254 0.64300001
0.13037252 0.18252154 0.634
0.096394643 0.20854004 0.72000003
0.098061606 0.20940897 0.72300005
0.098914757 0.20854004 0.72000003
0.1000357 0.2082504 0.71900004
0.10115313 0.20796077 0.71800005
0.10240969 0.20796077 0.71800005
0.10308871 0.20680222 0.71400005
0.10623886 0.20564365 0.71000004
0.11145236 0.20158871 0.69600004
0.11234666 0.20100942 0.69400001
0.11307032 0.20014052 0.69100004
0.11394887 0.19956124 0.68900001
0.11482041 0.19898197 0.68700004
0.11568496 0.19840269 0.68500006
0.1165425 0.19782341 0.68300003
0.11722065 0.19695447 0.68000001
0.11771418 0.19579594 0.67600006
0.11872134 0.19550629 0.67500001
0.11972502 0.19521666 0.67400002
0.12054581 0.19463739 0.67200005
0.1276284 0.19289953 0.66600001
0.12821381 0.19203064 0.66300005
0.12878871 0.19116171 0.66000003
0.12935309 0.19029278 0.65700001
0.12970838 0.18913424 0.65300006
0.13004965 0.18797569 0.64900005
0.13037691 0.18681712 0.64500004
0.13048629 0.18536893 0.64000005
0.13057816 0.18392074 0.63500005
-0.0096762162 0.16958842 0.58200002
-0.0025419975 0.16929702 0.58100003
0.096260764 0.20950872 0.71900004
0.097790338 0.21009149 0.72100002
0.098640002 0.20921734 0.71800005
0.099896565 0.20921734 0.71800005
0.10115313 0.20921734 0.71800005
0.10240969 0.20921734 0.71800005
0.1032331 0.20834316 0.71500003
0.10433827 0.20805177 0.71400005
0.10932951 0.20338954 0.69800001
0.11055107 0.20338954 0.69800001
0.11129224 0.20251538 0.69500005
0.11202289 0.2016412 0.69200003
0.11257942 0.20047565 0.68800002
0.11345272 0.19989289 0.68600005
0.11448614 0.1996015 0.68500006
0.11551607 0.19931009 0.68400002
0.11620123 0.19843595 0.68100005
0.1167035 0.19727038 0.67700005
0.1173659 0.1963962 0.67400002
0.11836958 0.19610482 0.67300004
0.11972502 0.1963962 0.67400002
0.12054581 0.19581343 0.67200005
0.12782703 0.19260815 0.66100001
0.12839843 0.19173399 0.65800005
0.12935309 0.19144259 0.65700001
0.12950973 0.18998565 0.65200001
0.12964888 0.1885287 0.64700001
0.13017477 0.18765454 0.64400005
0.1302824 0.18619761 0.63900006
0.13057816 0.18503204 0.63500005
0.037560306 0.17236578 0.588
0.038589355 0.17236578 0.588
0.039618406 0.17236578 0.588
0.096528523 0.2113533 0.72100002
0.097925976 0.21164645 0.72200006
0.099052146 0.2113533 0.72100002
0.10017482 0.21106017 0.72000003
0.10157576 0.2113533 0.72100002
0.10269495 0.21106017 0.72000003
0.10352185 0.21018074 0.71700001
0.10448441 0.20959447 0.71500003
