# .PCD v0.7 - Point Cloud Data file format
VERSION 0.7
FIELDS x y z
SIZE 4 4 4
TYPE F F F
COUNT 1 1 1
WIDTH 1381
HEIGHT 1
VIEWPOINT 0 0 0 1 0 0 0
POINTS 1381
DATA ascii
0.23139592 -0.041854344 0.067692652
0.23099798 0.027795963 0.068072192
0.00057272217 0.19057254 0.041511506
0.00054559135 0.18959324 0.049442202
0.00049417256 0.18850979 0.057433382
0.00044975383 0.18753968 0.065397471
0.00043502342 0.18682508 0.073298842
0.0004600125 0.18643463 0.081136316
0.00051975314 0.18636392 0.088925518
0.00059712399 0.18654655 0.096686862
0.00067407149 0.18690158 0.10443617
0.00074496743 0.18737476 0.11218384
0.00081123982 0.1879117 0.11993935
0.00086841465 0.18842608 0.12771189
0.00090947369 0.18883471 0.13550729
0.00092738186 0.18907201 0.14332722
0.00092214945 0.18914628 0.15116528
0.00090541056 0.18916783 0.15900852
0.00088369224 0.18919711 0.16685179
0.00085681671 0.18923524 0.17469509
0.00082433195 0.18928455 0.18253843
0.00078545074 0.1893491 0.1903818
0.00073924847 0.18943475 0.19822522
0.00068513211 0.18954845 0.20606869
0.00062185962 0.18968615 0.21392523
0.00054800807 0.18983305 0.22181863
0.0004660972 0.18999119 0.22975148
0.00038200949 0.19017623 0.2377097
0.00030156362 0.19040033 0.24568099
0.00022866088 0.19066826 0.25365776
0.00016365352 0.19097093 0.26164165
0.00010709142 0.19130664 0.26962328
5.8984442e-05 0.19166957 0.27759439
1.8628594e-05 0.19205573 0.28554901
-1.4867725e-05 0.19246729 0.29348335
-4.1589312e-05 0.19291 0.30139524
-6.0342154e-05 0.19339116 0.30928466
-6.9231108e-05 0.19391151 0.31715497
-6.6914181e-05 0.19445793 0.3250075
-5.5259803e-05 0.19499841 0.33284479
-7.5440592e-05 0.19503658 0.34081006
-0.00012402378 0.1940335 0.34899235
2.7743451e-06 0.19255807 0.35714746
0.00042414744 0.19083588 0.36521333
0.037883494 0.18751159 0.37271738
0.037755121 0.1881561 0.36489576
0.037696932 0.18919478 0.35691401
0.037792984 0.1903137 0.34876776
0.037842397 0.19061917 0.34068161
0.037707463 0.18998998 0.3328374
0.037555899 0.18927257 0.32500666
0.037417859 0.18858702 0.31716383
0.037302729 0.18797112 0.30930316
0.037209533 0.18742788 0.30142075
0.037133727 0.18694435 0.29351538
0.03707248 0.18650924 0.28558749
0.037024673 0.18611662 0.27763885
0.03699011 0.18576638 0.26967269
0.036968477 0.18546259 0.26169455
0.036958717 0.18520845 0.25371256
0.036959577 0.18500562 0.24573363
0.036970917 0.18485875 0.23775588
0.03698894 0.18475722 0.22978885
0.037008639 0.18468489 0.22184503
0.037024703 0.18462251 0.21393871
0.037035193 0.18456262 0.20606989
0.037041407 0.18450901 0.19822468
0.037046455 0.18447147 0.19038145
0.037050821 0.1844454 0.18253824
0.037055265 0.18442588 0.17469504
0.037060793 0.18440931 0.16685183
0.037066355 0.18439566 0.15900864
0.037070937 0.18438546 0.15116546
0.037074506 0.18437843 0.14332229
0.03706827 0.18433286 0.13548371
0.037044492 0.18421005 0.12765609
0.037005253 0.18401575 0.11984143
0.036957324 0.1837817 0.11203777
0.036898717 0.18353221 0.10423914
0.036803793 0.18321702 0.096447073
0.036687486 0.1828849 0.088662289
0.036602996 0.18269698 0.080871671
0.036590319 0.18277377 0.073054224
0.036659677 0.18314601 0.065192729
0.036786355 0.18373685 0.057290733
0.036921605 0.18439014 0.049385473
0.037021223 0.18494503 0.041558489
0.074887894 0.1809608 0.37196457
0.074893132 0.18101697 0.36410341
0.074768268 0.1806796 0.35628825
0.074572317 0.18015674 0.34847903
0.074328199 0.17951702 0.34066314
0.074052028 0.17880155 0.33283928
0.073767483 0.17806816 0.32500461
0.073499277 0.17737541 0.31715566
0.073262893 0.17675832 0.30928698
0.073058873 0.17621647 0.30139622
0.072881512 0.17573644 0.29348347
0.072726682 0.17530866 0.28555068
0.072592035 0.17492951 0.27760103
0.072476745 0.17460154 0.26963714
0.072380237 0.17432849 0.26166439
0.07230138 0.17411213 0.25369033
0.072241955 0.17395954 0.24571371
0.072200336 0.17386761 0.23773861
0.072171293 0.17382263 0.22977559
0.072147943 0.17380577 0.22183727
0.072122566 0.17379558 0.21393715
0.072095342 0.17378935 0.20606795
0.072066441 0.17378534 0.19822273
0.072041757 0.17379604 0.19037965
0.072020516 0.17381825 0.18253662
0.072001785 0.1738482 0.17469364
0.071985066 0.17388293 0.16685069
0.071970068 0.17392008 0.15900774
0.071956687 0.17395762 0.15116481
0.071945041 0.17399369 0.1433219
0.071935505 0.17402647 0.13547894
0.071928725 0.17405425 0.12763599
0.071925685 0.17407534 0.11979296
0.071926922 0.1740862 0.11194987
0.071833111 0.17383832 0.10411128
0.071488015 0.17300561 0.09631326
0.071044311 0.17197846 0.088570736
0.070683025 0.17114963 0.08085832
0.070483409 0.17068498 0.07314612
0.070461318 0.17061977 0.065411568
0.070614479 0.17095067 0.057637721
0.070934981 0.17165959 0.049815372
0.071380265 0.17265193 0.041969746
0.10881504 0.16298296 0.37192929
0.10872688 0.16279103 0.36412925
0.10857574 0.16249605 0.35632282
0.10835768 0.16209538 0.34850901
0.10807661 0.16159937 0.3406865
0.10774567 0.16103336 0.33285365
0.10738702 0.16043715 0.32500815
0.10702838 0.1598579 0.31714541
0.10669142 0.15932943 0.30926153
0.10638559 0.15886228 0.30135503
0.10611 0.15845093 0.2934266
0.10586251 0.15808953 0.28547883
0.1056396 0.15777342 0.27751625
0.10543644 0.15749802 0.26954573
0.10525016 0.15726046 0.26157683
0.10508491 0.15706806 0.253609
0.10494477 0.15692675 0.24563956
0.1048271 0.15683019 0.23767594
0.10472704 0.15676707 0.22972846
0.10463779 0.15672253 0.22180974
0.10455524 0.15668668 0.21392465
0.10448096 0.15665989 0.2060647
0.10441601 0.15664303 0.19822137
0.10436529 0.1566439 0.19037816
0.10432654 0.15665947 0.18253501
0.10429795 0.15668771 0.17469193
0.10427814 0.15672697 0.1668489
0.10426608 0.15677604 0.15900593
0.10426135 0.15683417 0.151163
0.10426308 0.15689979 0.14332011
0.10426998 0.15697055 0.13547727
0.10420316 0.15692005 0.12762871
0.10377733 0.15630034 0.11977734
0.10312009 0.15531632 0.11196523
0.10247353 0.15430315 0.10420045
0.10193133 0.15336557 0.096476518
0.10154086 0.15261053 0.088782765
0.10131752 0.15210585 0.081103534
0.10124832 0.15186091 0.07342492
0.10132716 0.15188134 0.065734372
0.10154913 0.15216525 0.058024332
0.10190596 0.15269706 0.050300255
0.10237759 0.15343489 0.042594895
0.13831979 0.13836949 0.37196934
0.13829544 0.13829386 0.36416656
0.13822916 0.13817006 0.35635459
0.13810888 0.1379889 0.34853268
0.13792825 0.13774835 0.34069943
0.13768762 0.13745411 0.33285213
0.13739517 0.13712005 0.32498848
0.13706642 0.13676755 0.31710622
0.13671957 0.13641866 0.30920368
0.13637029 0.13608924 0.30128029
0.13602974 0.135787 0.29333705
0.13570713 0.13551746 0.2853767
0.13540386 0.13527925 0.27740452
0.13511463 0.13506502 0.26942861
0.13484141 0.13487573 0.26145327
0.134589 0.13471551 0.25348178
0.13435535 0.13458006 0.24552459
0.13414189 0.1344694 0.23758377
0.1339457 0.13437712 0.2296664
0.13376367 0.13429581 0.22177839
0.13359949 0.13422702 0.21391156
0.13345055 0.13416536 0.20606601
0.13332476 0.13411905 0.19822252
0.13322021 0.13408513 0.19037907
0.13313428 0.13406046 0.18253566
0.13306487 0.13404275 0.1746923
0.13301043 0.13403063 0.16684899
0.1329708 0.13402438 0.1590057
0.1329488 0.13403235 0.15116249
0.13294558 0.13405913 0.14331937
0.13287616 0.13400571 0.1354681
0.13254708 0.13364412 0.12760916
0.13199042 0.1329861 0.11977413
0.13136509 0.13219315 0.11198102
0.13083731 0.13146447 0.10422726
0.13046572 0.13087866 0.096502282
0.13024238 0.13044421 0.088797592
0.13016666 0.13018136 0.081102923
0.13023375 0.13010064 0.073407769
0.13043867 0.1302065 0.065703213
0.13077746 0.13049932 0.057983994
0.13124339 0.1309704 0.050254121
0.13181452 0.1315885 0.042539239
0.16253765 0.10864694 0.37198082
0.16259836 0.10866239 0.36417413
0.16265558 0.10867023 0.3563551
0.16270076 0.10866541 0.34852189
0.16271932 0.1086422 0.34067288
0.1626942 0.10859425 0.33280668
0.16261648 0.10851901 0.3249225
0.16248451 0.10841843 0.31701982
0.16229972 0.10829716 0.3090989
0.16206525 0.10816045 0.30116087
0.16178755 0.10801339 0.293208
0.16147564 0.10786078 0.28524402
0.16113701 0.107704 0.27727446
0.16078541 0.1075495 0.26929983
0.16043429 0.10740366 0.26132458
0.1600922 0.10726871 0.25335777
0.15976118 0.10714244 0.2454111
0.15943822 0.107019 0.23749863
0.1591291 0.10690179 0.22961864
0.15884571 0.10680034 0.2217567
0.15858747 0.1067123 0.213912
0.15836246 0.10664381 0.20606832
0.15816933 0.10659175 0.19822471
0.15800621 0.10655303 0.19038114
0.15787102 0.10652502 0.18253763
0.15776193 0.10650565 0.17469418
0.15767731 0.10649341 0.16685075
0.1576159 0.10648725 0.15900739
0.15757684 0.10648648 0.15116404
0.15755992 0.10649089 0.14332074
0.15756184 0.10649671 0.13547707
0.15748419 0.10640591 0.12762824
0.15723361 0.10612055 0.11978511
0.15686022 0.10567776 0.11196856
0.15649341 0.10519711 0.10418604
0.15624885 0.10480309 0.096429519
0.15617387 0.10455662 0.088686466
0.15625311 0.10445108 0.080948383
0.15647097 0.1044803 0.073207825
0.15682164 0.10464679 0.065456942
0.15730019 0.10495112 0.05768916
0.15790527 0.1053926 0.049900904
0.1586348 0.10596722 0.042095453
0.18073855 0.074928962 0.37193173
0.18084492 0.074966185 0.36411846
0.18096969 0.075008564 0.35629159
0.18111056 0.075054951 0.3484492
0.18125923 0.075102292 0.34058973
0.18140657 0.075146988 0.33271194
0.18154785 0.075187556 0.32481524
0.1816759 0.075223856 0.31690001
0.18177627 0.07525599 0.30896801
0.18182933 0.075282894 0.30102238
0.18181835 0.075301334 0.29306772
0.1817347 0.075307012 0.28510815
0.18158482 0.075299285 0.277143
0.18137212 0.07527557 0.26917768
0.18110347 0.075235359 0.26121968
0.18078846 0.075178407 0.25327843
0.18043928 0.07510706 0.24536106
0.18007542 0.07502871 0.23746642
0.17970315 0.074943148 0.22960319
0.17934497 0.074861579 0.22175877
0.17902148 0.074795358 0.21391512
0.1787343 0.074743614 0.20607148
0.17848444 0.07470455 0.19822787
0.17827238 0.074676253 0.1903843
0.17809762 0.07465703 0.18254076
0.17795955 0.074645452 0.17469725
0.17785743 0.074640371 0.16685379
0.17779069 0.074640967 0.15901035
0.1777591 0.074646644 0.15116698
0.17776267 0.074657075 0.14332363
0.17780195 0.074672371 0.13548033
0.17787831 0.07469283 0.12763706
0.17799319 0.074718893 0.11979384
0.17814827 0.074751534 0.11195066
0.17832303 0.074775077 0.10410865
0.17851134 0.074786238 0.096272044
0.17874061 0.074804388 0.088443413
0.17904714 0.074858926 0.080619603
0.17944609 0.074969493 0.072794646
0.17994207 0.075146608 0.064961642
0.18052079 0.075384051 0.05711624
0.18115984 0.075661272 0.049258381
0.1922804 0.038341176 0.37180674
0.19238611 0.038361363 0.36398691
0.19251204 0.038385026 0.35615474
0.1926586 0.038412072 0.34830868
0.19282445 0.038441692 0.34044719
0.19300871 0.038473066 0.33256909
0.19320914 0.038505744 0.32467407
0.19341901 0.038539331 0.31676307
0.19362698 0.038573179 0.30883837
0.1938207 0.038605765 0.30090383
0.19399235 0.038635325 0.29296336
0.19414483 0.038661994 0.28501648
0.19427195 0.038685281 0.27706873
0.19436075 0.038705666 0.26912782
0.194397 0.038725127 0.26119995
0.19438429 0.038745452 0.25328323
0.19431274 0.038764894 0.2453838
0.1941952 0.038784362 0.23749538
0.19403724 0.038801767 0.22961946
0.19383983 0.038813841 0.22176178
0.19361977 0.038821187 0.21391822
0.19340503 0.038829044 0.20607485
0.19320457 0.038836982 0.19823144
0.19302557 0.038844667 0.19038804
0.19287263 0.038852185 0.18254463
0.19274938 0.038859461 0.17470123
0.19265807 0.038866475 0.16685785
0.19260003 0.038873132 0.15901449
0.19257627 0.038879231 0.15117118
0.19258675 0.038884681 0.14332789
0.19263092 0.038889356 0.13548462
0.19270869 0.038892861 0.12764141
0.19282073 0.038894545 0.11979823
0.19296585 0.038893927 0.11195511
0.19314164 0.038890731 0.10411207
0.19335005 0.038885742 0.096269064
0.19362687 0.03888705 0.088426195
0.19398588 0.038899101 0.080583543
0.19439119 0.038915895 0.072741047
0.1948114 0.038932201 0.06489864
0.19521196 0.038945504 0.057056338
0.19555627 0.038957167 0.04921405
0.1958214 0.038969919 0.041371629
0.19659279 0.00013579895 0.37163621
0.1966853 0.00013670789 0.36380768
0.19678959 0.00013733421 0.35597008
0.19690502 0.00013773078 0.34812289
0.19703186 0.00013763331 0.34026545
0.19717467 0.00013653461 0.3323957
0.1973343 0.00013372702 0.32451311
0.19750749 0.0001289413 0.31661886
0.19768682 0.00012314125 0.30871564
0.19786422 0.00011664035 0.3008073
0.19803874 0.00010997575 0.2928938
0.19820394 0.00010374759 0.28497875
0.19835144 9.8634271e-05 0.27706712
0.19848242 9.5501651e-05 0.26915702
0.19859003 9.5088551e-05 0.26125184
0.1986829 9.683254e-05 0.25334582
0.19876003 0.00010013598 0.24544026
0.19881809 0.00010431513 0.23753938
0.19885407 0.00010871359 0.22964823
0.19886412 0.0001128393 0.22177263
0.19884372 0.00011633246 0.21391906
0.19881025 0.00011932937 0.20607589
0.1987787 0.00012192433 0.19823273
0.19875042 0.0001241337 0.19038954
0.19872619 0.00012607771 0.18254636
0.19870669 0.00012779581 0.17470318
0.19869244 0.00012918012 0.16686001
0.19868407 0.00012995198 0.15901685
0.19868164 0.00013028008 0.15117368
0.19868486 0.00013035115 0.14333053
0.1986935 0.0001302845 0.13548738
0.1987077 0.00012988033 0.12764424
0.1987281 0.00012869672 0.11980109
0.19875483 0.00012652627 0.11195797
0.19878989 0.00012282286 0.10411485
0.19884145 0.00011654355 0.096271746
0.19894002 0.00010482554 0.088428736
0.19908272 8.8365348e-05 0.080585837
0.1992455 7.0081012e-05 0.072743028
0.19941011 5.2252464e-05 0.064900249
0.19956301 3.6571197e-05 0.057057485
0.19969593 2.3981882e-05 0.049214721
0.19333255 -0.038263634 0.37147003
0.19340549 -0.038274437 0.36363435
0.19348662 -0.038287658 0.3557916
0.19357179 -0.038302444 0.34794301
0.19365866 -0.038318675 0.34008956
0.19374785 -0.038336832 0.33223179
0.19384611 -0.038359597 0.32436818
0.19395767 -0.038389038 0.31649816
0.19407387 -0.038419403 0.30862474
0.19419137 -0.038449805 0.30074954
0.19430874 -0.038479269 0.2928721
0.19442622 -0.03850707 0.28499046
0.19454245 -0.038533587 0.27710414
0.19466121 -0.038559701 0.26920843
0.19477777 -0.038584035 0.26130494
0.19488776 -0.038605418 0.25339633
0.19498871 -0.038624972 0.2454859
0.19507709 -0.038642194 0.23757784
0.19514926 -0.038656324 0.2296771
0.19520144 -0.038666751 0.22178945
0.1952289 -0.038672253 0.21392158
0.19523168 -0.038672894 0.20607571
0.1952316 -0.038673069 0.19823258
0.19523159 -0.038673308 0.19038944
0.19523154 -0.038673516 0.1825463
0.19523162 -0.038673792 0.17470314
0.19523251 -0.038674932 0.16685997
0.1952353 -0.03867821 0.15901682
0.19523844 -0.038681734 0.15117371
0.19524132 -0.038684759 0.14333062
0.19524354 -0.038686391 0.13548748
0.19524732 -0.038688023 0.12764436
0.19525574 -0.03869145 0.11980123
0.19526984 -0.038696758 0.11195811
0.19530001 -0.038707107 0.104115
0.19536619 -0.038729858 0.096271992
0.19545934 -0.038762469 0.088429071
0.19556792 -0.038800862 0.08058621
0.19568199 -0.038841609 0.072743386
0.19579354 -0.038881939 0.064900592
0.19589652 -0.038919684 0.057057813
0.19598658 -0.038953185 0.049214989
0.18254963 -0.075356379 0.37134486
0.1825915 -0.075362444 0.36350697
0.18264079 -0.075373165 0.35566384
0.18269312 -0.075387098 0.347817
0.18274558 -0.07540454 0.33996877
0.18279539 -0.075425431 0.33212239
0.18284717 -0.075455047 0.32428008
0.18291764 -0.075507216 0.31643784
0.18299004 -0.075556092 0.30859464
0.1830717 -0.075605653 0.30074498
0.18316449 -0.075655036 0.29288393
0.18326178 -0.075698271 0.28501111
0.18336459 -0.075740084 0.27712685
0.18347 -0.075780287 0.26923215
0.18357086 -0.075814478 0.26132882
0.18366019 -0.075836413 0.25341934
0.18374513 -0.075859211 0.24550726
0.18382315 -0.075883321 0.2375965
0.18389019 -0.075906254 0.22969188
0.18394296 -0.075926997 0.22179911
0.18397439 -0.075939849 0.21392488
0.18398093 -0.075942695 0.20607501
0.18398146 -0.075943656 0.19823186
0.18398245 -0.075945184 0.19038874
0.18398331 -0.075946413 0.18254556
0.18398446 -0.075947486 0.17470227
0.18399033 -0.075953387 0.1668589
0.18401082 -0.075975955 0.1590156
0.18403393 -0.076000802 0.15117271
0.18405567 -0.076022945 0.14332983
0.18407033 -0.076033972 0.13548672
0.18409006 -0.076043926 0.12764364
0.18413126 -0.076068111 0.11980069
0.18418983 -0.076104425 0.11195781
0.18426034 -0.076149806 0.10411499
0.18433677 -0.07620018 0.09627223
0.18441048 -0.076254562 0.088430382
0.18447389 -0.076307058 0.080590099
0.18453732 -0.076359704 0.072749779
0.18460451 -0.076412208 0.064907759
0.18467253 -0.076461755 0.057063237
0.18473229 -0.076503538 0.04921703
0.16468416 -0.1097844 0.37911493
0.16467935 -0.10974871 0.37128443
0.16468076 -0.10971718 0.36344963
0.16468595 -0.10968907 0.3556118
0.16469492 -0.10966815 0.34777248
0.16470975 -0.10966261 0.33993423
0.1647336 -0.10967608 0.33209962
0.16479097 -0.1097331 0.32426715
0.16493361 -0.10990887 0.31643319
0.16506724 -0.11006071 0.30859366
0.16520546 -0.11020505 0.300742
0.16533688 -0.11033042 0.29287848
0.16543192 -0.11040048 0.28500414
0.16551434 -0.11044762 0.27711892
0.1655895 -0.1104786 0.2692236
0.16563563 -0.11047554 0.26131961
0.16561562 -0.1103861 0.25340971
0.16560234 -0.11030889 0.24549851
0.16560571 -0.11026283 0.2375893
0.1656218 -0.11024242 0.22968608
0.16565506 -0.11025542 0.22179437
0.16567735 -0.11026786 0.2139214
0.16568159 -0.11027018 0.20607251
0.16568613 -0.11027616 0.19822936
0.16569424 -0.11028691 0.19038628
0.16570123 -0.11029556 0.18254299
0.1657037 -0.11029831 0.17469889
0.16572416 -0.11032397 0.16685404
0.16585319 -0.11048179 0.1590095
0.16599862 -0.11066144 0.1511682
0.16613431 -0.11083176 0.14332724
0.16619925 -0.11091562 0.13548452
0.16621989 -0.11094443 0.12764198
0.16623726 -0.11097138 0.11979952
0.16625035 -0.11099523 0.11195711
0.16625643 -0.11101233 0.10411473
0.16623923 -0.11100145 0.096272521
0.16624218 -0.11101688 0.088430181
0.16625288 -0.11104181 0.080587655
0.1662689 -0.11107194 0.072744846
0.16628629 -0.11110115 0.064901873
0.16629378 -0.11111381 0.057058826
0.16629393 -0.11111404 0.049215689
0.16629393 -0.11111404 0.041372553
0.14025061 -0.14007455 0.37912482
0.14025319 -0.14003809 0.37129918
0.14024939 -0.13998203 0.36347041
0.14024082 -0.13991025 0.35563862
0.14023821 -0.13984939 0.34780389
0.14026417 -0.13984855 0.33996606
0.14032511 -0.13990685 0.33212554
0.14046797 -0.14005351 0.32428238
0.14095478 -0.14071481 0.31643596
0.14138083 -0.14126416 0.30858046
0.14179076 -0.14178149 0.3007144
0.14216501 -0.14224879 0.2928378
0.14235686 -0.14247112 0.2849564
0.14247833 -0.14259472 0.27706745
0.14256862 -0.14264661 0.26917103
0.142535 -0.14256877 0.26126641
0.14209497 -0.14194734 0.25335732
0.14164352 -0.14130044 0.245453
0.14126532 -0.14077413 0.23755394
0.14098176 -0.14038414 0.2296596
0.14090489 -0.14028026 0.22177336
0.14087324 -0.1402541 0.21390627
0.14085107 -0.14024307 0.2060595
0.14086328 -0.1402829 0.19821632
0.14090185 -0.14036371 0.1903739
0.14093062 -0.14043431 0.18253078
0.14087717 -0.14040709 0.17468157
0.14079694 -0.14035641 0.16682534
0.14153641 -0.14131641 0.15896678
0.14244139 -0.14248967 0.15113425
0.14340711 -0.14375547 0.14330676
0.14384596 -0.14436261 0.13546284
0.14388014 -0.14444321 0.12761986
0.14389753 -0.14449981 0.11977699
0.14388566 -0.14451507 0.11193413
0.14379375 -0.14442284 0.10409138
0.14307462 -0.14352433 0.096253872
0.14254223 -0.14285296 0.088417783
0.14197914 -0.14213642 0.080583781
0.14142136 -0.14142136 0.0727451
0.14142136 -0.14142136 0.064901963
0.14142136 -0.14142136 0.057058826
0.14142136 -0.14142136 0.049215689
0.11017686 -0.16477978 0.37917697
0.11016734 -0.16473904 0.3713541
0.11009701 -0.16455559 0.36353031
0.1099908 -0.16427709 0.35570425
0.10992358 -0.16408479 0.34787136
0.10998075 -0.16416107 0.3400248
0.11012496 -0.16441639 0.33216631
0.11020523 -0.16444629 0.32431096
0.11072163 -0.16524887 0.31643945
0.11113552 -0.16580546 0.30856261
0.11151135 -0.1663221 0.30067569
0.11186229 -0.16683793 0.29278308
0.11201779 -0.16706853 0.28489617
0.11213372 -0.16723421 0.27700442
0.1121876 -0.16709018 0.26911262
0.11218376 -0.1671132 0.26120871
0.11198281 -0.16705625 0.25329924
0.11163225 -0.16660011 0.24539942
0.11083974 -0.16554897 0.23750499
0.10975237 -0.16410607 0.22961275
0.10876624 -0.16281359 0.22170906
0.10809896 -0.16204438 0.21381229
0.10764059 -0.16149861 0.20593522
0.10744379 -0.16132753 0.19808294
0.10747987 -0.16151063 0.19023725
0.10752354 -0.1617019 0.18239151
0.10792656 -0.16248417 0.17454123
0.10887612 -0.16421486 0.16668133
0.10993873 -0.16556908 0.15885703
0.11122811 -0.16692601 0.15106733
0.11237484 -0.16786435 0.14328441
0.11341619 -0.16922383 0.13546585
0.11340032 -0.16920361 0.12762295
0.11338446 -0.16918337 0.11978005
0.11336859 -0.16916317 0.11193714
0.11306971 -0.16878644 0.10409458
0.11257686 -0.16815929 0.096256211
0.11209372 -0.16754507 0.088419355
0.11160182 -0.16691913 0.080584198
0.11111404 -0.16629393 0.0727451
0.11111404 -0.16629393 0.064901963
0.11116939 -0.166419 0.05703713
0.11126864 -0.16668756 0.049160749
0.075832546 -0.18295842 0.37923887
0.075736813 -0.18275408 0.37142125
0.075324371 -0.18183348 0.36361909
0.074848697 -0.18073374 0.35581565
0.074708901 -0.18046437 0.34798288
0.074712105 -0.1805041 0.34013158
0.074733227 -0.18056084 0.33226892
0.074724279 -0.18054196 0.32439953
0.074752614 -0.1805966 0.31652212
0.074577838 -0.18006481 0.3086426
0.074644744 -0.18012644 0.30073652
0.075053722 -0.18103574 0.29280359
0.075219467 -0.18141435 0.28488469
0.075445265 -0.18196853 0.27696246
0.075450867 -0.18199609 0.26905999
0.0754494 -0.18201981 0.26116121
0.075436071 -0.18201837 0.25326359
0.07543236 -0.18202908 0.24537098
0.075716548 -0.18279611 0.23748451
0.076112971 -0.18376325 0.22961298
0.07659027 -0.18488693 0.22176504
0.076911524 -0.18554978 0.21392384
0.077013589 -0.18575914 0.20608105
0.077473231 -0.18673895 0.19822972
0.077927366 -0.1878016 0.1903749
0.078274712 -0.18873917 0.1825211
0.078283854 -0.18877126 0.17467754
0.07826817 -0.18873322 0.16683486
0.078165889 -0.18853793 0.15898907
0.078020528 -0.18826891 0.15114191
0.077978916 -0.18818493 0.14329833
0.077945732 -0.1881157 0.1354557
0.07775753 -0.18773732 0.12761495
0.076985441 -0.18594064 0.11978956
0.0765367 -0.1847759 0.11196079
0.0765367 -0.1847759 0.10411765
0.0765367 -0.1847759 0.09627451
0.076623105 -0.18502481 0.088405289
0.076696657 -0.1852314 0.080537573
0.077117734 -0.18574904 0.072458237
0.07693889 -0.18551801 0.064705625
0.076700859 -0.18517299 0.056994826
0.076594003 -0.18502916 0.049204037
0.076545238 -0.18481436 0.041370854
0.038663886 -0.19420171 0.37927753
0.038643382 -0.19423254 0.37145317
0.038542997 -0.19417091 0.36362827
0.038457625 -0.19418013 0.35579422
0.038507856 -0.19472699 0.34794509
0.038567897 -0.1951472 0.34008205
0.038617264 -0.19541359 0.33220643
0.038654957 -0.19571681 0.32432458
0.038585749 -0.19603571 0.31645319
0.038671672 -0.19637115 0.3085469
0.038833134 -0.1965708 0.30062562
0.038897157 -0.19650671 0.29270279
0.038688574 -0.19568585 0.28478813
0.038733885 -0.19548748 0.27686077
0.038712099 -0.19545512 0.26895174
0.038979802 -0.19609584 0.26105037
0.03900006 -0.19612992 0.25317159
0.039013084 -0.19614922 0.24530382
0.039018061 -0.19615707 0.23745099
0.039018061 -0.19615707 0.22960785
0.039018061 -0.19615707 0.22176471
0.039018061 -0.19615707 0.21392158
0.039018061 -0.19615707 0.20607844
0.039018061 -0.19615707 0.1982353
0.039018061 -0.19615707 0.19039215
0.039018061 -0.19615707 0.18254901
0.039078671 -0.19632263 0.17470407
0.039549794 -0.19750251 0.1668485
0.039247889 -0.19672145 0.15901288
0.039280895 -0.19674756 0.15117018
0.039155662 -0.19654581 0.14332846
0.039217021 -0.19671914 0.13548315
0.039018061 -0.19615707 0.12764707
0.039018061 -0.19615707 0.11980393
0.038979076 -0.19596811 0.11196094
0.038473476 -0.19357191 0.10412171
0.038393397 -0.19315444 0.09628024
0.03848961 -0.19358699 0.088417888
0.038646691 -0.19431095 0.080537021
0.038680062 -0.19446677 0.072684973
0.038657364 -0.19435999 0.064847261
0.038823899 -0.1947774 0.056949288
0.038753707 -0.1945617 0.049131081
0.038812447 -0.19485697 0.041316181
3.1231415e-05 -0.19804458 0.3792842
2.6430018e-05 -0.19822381 0.37145832
2.0190584e-05 -0.1988209 0.36363405
2.3499459e-05 -0.19955823 0.3558014
5.626796e-05 -0.20062749 0.34795672
6.1181083e-05 -0.20126271 0.34009814
5.6427434e-05 -0.20169926 0.3322238
9.1412985e-05 -0.20267498 0.32434583
0.00010895673 -0.20367646 0.31646445
6.2467378e-05 -0.20460208 0.30857378
0.00017245747 -0.20481408 0.30066249
0.00018111056 -0.20448056 0.29273242
4.0234445e-05 -0.20359628 0.28477466
-5.8714631e-05 -0.20424329 0.27682951
-0.00018557113 -0.20522387 0.26885694
-0.00034843996 -0.20590273 0.26085621
-0.00055037718 -0.20566218 0.25292194
-0.00056930905 -0.20542745 0.245033
-0.00055642141 -0.20528913 0.23720236
-0.00052561751 -0.20498784 0.22937569
-0.00041612569 -0.20413347 0.2215457
-0.0003128963 -0.20311387 0.21371767
-0.0002415082 -0.20238452 0.20591636
-0.00013206419 -0.201295 0.19814394
-3.9811461e-05 -0.20039466 0.19036421
-1.7484556e-08 -0.2 0.18254901
-8.9861322e-05 -0.20040755 0.17470247
-9.5826936e-06 -0.20004287 0.1668624
-1.7484556e-08 -0.2 0.1590196
-1.7484556e-08 -0.2 0.15117647
-1.7484556e-08 -0.2 0.14333335
-1.7484556e-08 -0.2 0.13549021
-1.7484556e-08 -0.2 0.12764707
-1.7484556e-08 -0.2 0.11980393
-1.7484556e-08 -0.2 0.11196079
-1.7484556e-08 -0.2 0.10411765
-1.7484556e-08 -0.2 0.09627451
-1.0539715e-05 -0.20010293 0.088429451
-0.00021542041 -0.20129366 0.080532342
-0.00025413171 -0.20186861 0.072645217
-0.00030534013 -0.20175457 0.064799458
-0.00014246879 -0.20201352 0.056978315
-0.00016627971 -0.20147477 0.049183995
-0.00015387543 -0.20133987 0.041343138
-0.038618222 -0.19429587 0.37926382
-0.038640264 -0.19441052 0.37143445
-0.038668279 -0.19467349 0.36360046
-0.03872909 -0.1951507 0.35576105
-0.038894419 -0.19612597 0.34791821
-0.039058086 -0.19749694 0.34007776
-0.039268684 -0.19809286 0.33220857
-0.039488792 -0.19896032 0.32433328
-0.039721947 -0.20019089 0.31645432
-0.039944217 -0.20126934 0.30856085
-0.040237218 -0.20245604 0.30065525
-0.040553104 -0.20347102 0.29271972
-0.040694918 -0.20449197 0.28475207
-0.040928971 -0.20486343 0.27685857
-0.04065394 -0.20487809 0.26891154
-0.040577631 -0.20464464 0.26097974
-0.04050776 -0.20455818 0.25304574
-0.040412933 -0.20412122 0.24516903
-0.040333163 -0.20362201 0.23732382
-0.040072422 -0.20270932 0.22945735
-0.039454225 -0.20053457 0.22151098
-0.039377641 -0.19980511 0.21369538
-0.039236698 -0.19831495 0.2059298
-0.039159141 -0.19754539 0.19813789
-0.039078288 -0.19651851 0.19037904
-0.039370552 -0.19770603 0.182537
-0.039561953 -0.19845051 0.17468752
-0.039746579 -0.19907948 0.16683504
-0.039824557 -0.19932421 0.15898758
-0.039813768 -0.19928372 0.15114492
-0.039802972 -0.19924325 0.14330226
-0.03979218 -0.19920278 0.13545959
-0.039781384 -0.1991623 0.12761691
-0.039580055 -0.19824831 0.11978153
-0.039286736 -0.19715653 0.1119497
-0.039018244 -0.1961578 0.10411763
-0.039063174 -0.19660209 0.096264556
-0.039125606 -0.1971138 0.088411562
-0.039229963 -0.19799188 0.080523282
-0.0393604 -0.19903979 0.072583109
-0.039289422 -0.19861266 0.064763099
-0.039231021 -0.19818987 0.056952983
-0.039186537 -0.19779412 0.049154729
-0.07582055 -0.1831076 0.37923074
-0.075880609 -0.18320304 0.37140033
-0.07593751 -0.18332392 0.36356252
-0.076002136 -0.18351083 0.35571814
-0.076144427 -0.18391734 0.34787023
-0.076406613 -0.18481913 0.34002227
-0.076567158 -0.18526062 0.33215627
-0.076744318 -0.18623516 0.32430458
-0.076796673 -0.18694572 0.31644756
-0.076940604 -0.18688475 0.30853918
-0.079082757 -0.18998183 0.30061674
-0.07931821 -0.19099274 0.29270053
-0.078768872 -0.19026124 0.28479126
-0.07868401 -0.19021584 0.27689633
-0.078354828 -0.18984638 0.26901034
-0.07852754 -0.19002174 0.26110646
-0.078426264 -0.18983017 0.25322625
-0.078323334 -0.18960264 0.24535525
-0.078271866 -0.18950115 0.23750347
-0.076794699 -0.18547934 0.229616
-0.076536685 -0.1847759 0.22176471
-0.076536685 -0.1847759 0.21392158
-0.076536685 -0.1847759 0.20607844
-0.076536685 -0.1847759 0.1982353
-0.076536685 -0.1847759 0.19039215
-0.076536685 -0.1847759 0.18254901
-0.076536685 -0.1847759 0.17470588
-0.076756477 -0.18549752 0.16685118
-0.077163152 -0.18702655 0.15899205
-0.077243879 -0.18738578 0.15114823
-0.077415578 -0.18813813 0.14329931
-0.077633128 -0.1883145 0.13544294
-0.077605806 -0.18751971 0.12759179
-0.077792548 -0.18747061 0.11973691
-0.077772975 -0.18703578 0.11189495
-0.077779584 -0.18703163 0.10405181
-0.079189993 -0.18911515 0.096143045
-0.078061648 -0.18745369 0.088352084
-0.076536685 -0.1847759 0.080588236
-0.076536685 -0.1847759 0.0727451
-0.07637199 -0.18449748 0.06508331
-0.076138698 -0.18390389 0.057468772
-0.076011337 -0.1836196 0.04975608
-0.11018484 -0.16490994 0.37919974
-0.11044792 -0.16514656 0.37136734
-0.11065109 -0.16535619 0.36352873
-0.11077883 -0.16554101 0.35568815
-0.11114273 -0.16613835 0.34785581
-0.11176106 -0.16729176 0.34004655
-0.11220317 -0.16816804 0.33220938
-0.11185537 -0.16801438 0.32441646
-0.11005374 -0.16604684 0.31673691
-0.1074213 -0.16289526 0.3090851
-0.10623821 -0.16148423 0.30115414
-0.10470215 -0.16036092 0.28537083
-0.10426681 -0.15976281 0.27742478
-0.10457791 -0.1600713 0.26948541
-0.10527515 -0.16074143 0.26150933
-0.10562352 -0.1600648 0.25348708
-0.10676368 -0.16084091 0.24546269
-0.10866717 -0.16313167 0.23754406
-0.11013585 -0.16493236 0.22963357
-0.11353325 -0.16908817 0.22171584
-0.11383516 -0.16968064 0.21384822
-0.11375524 -0.16963713 0.20599824
-0.11393442 -0.16984926 0.19814156
-0.11401109 -0.16994454 0.19028546
-0.11461293 -0.17058085 0.18239181
-0.1150497 -0.17099325 0.17450586
-0.11405176 -0.16986571 0.16670831
-0.11162118 -0.16694474 0.15899384
-0.11128826 -0.16646168 0.15116504
-0.11111406 -0.1662939 0.14333335
-0.11295947 -0.16910794 0.13540234
-0.11357601 -0.17040996 0.12752372
-0.11351384 -0.17030458 0.11968376
-0.11345166 -0.17019925 0.11184379
-0.11338949 -0.17009389 0.10400384
-0.11332486 -0.16998236 0.096163951
-0.11308873 -0.16945957 0.088332474
-0.11295208 -0.16919355 0.08049801
-0.1127486 -0.16881296 0.072666734
-0.11226878 -0.16799389 0.064848289
-0.11111406 -0.16629392 0.057058826
-0.11111406 -0.1662939 0.049215689
-0.14185104 -0.14155722 0.37132853
-0.14287625 -0.14246437 0.3634662
-0.14324619 -0.14283894 0.35561499
-0.14350468 -0.1431167 0.34777576
-0.14189403 -0.14140747 0.34014496
-0.13985142 -0.13931516 0.3324737
-0.13834932 -0.13779841 0.32473463
-0.13673382 -0.13596685 0.31694165
-0.13518865 -0.13425086 0.30907819
-0.13455537 -0.13333845 0.30113044
-0.1342957 -0.13300937 0.29322198
-0.13413095 -0.13291065 0.28532624
-0.13429722 -0.13271676 0.27736822
-0.13487794 -0.1329603 0.26927441
-0.13480411 -0.1337491 0.26129496
-0.13523409 -0.13423042 0.25334817
-0.13687973 -0.13598973 0.24531358
-0.14182346 -0.14151435 0.23733173
-0.14420339 -0.14433894 0.22955945
-0.14446586 -0.14469682 0.22170746
-0.14512144 -0.14551352 0.21383607
-0.14629428 -0.14688116 0.20592178
-0.14672528 -0.14730042 0.1980494
-0.14694436 -0.14742522 0.19019222
-0.14682539 -0.1471931 0.18234713
-0.14614151 -0.14645948 0.17444398
-0.1457804 -0.14594254 0.16660011
-0.14548351 -0.1454514 0.15876545
-0.14525333 -0.1451643 0.15093648
-0.14481197 -0.1446933 0.14311934
-0.14381503 -0.14362858 0.13534036
-0.1414451 -0.1414414 0.1276457
-0.14153148 -0.14159894 0.11979847
-0.14161894 -0.14172268 0.11195166
-0.14353263 -0.14419614 0.10403445
-0.14307259 -0.1427993 0.096245348
-0.14324169 -0.14286074 0.088402502
-0.14343449 -0.14300041 0.080556348
-0.14345071 -0.14301081 0.072712988
-0.14342213 -0.14298843 0.064870313
-0.14339356 -0.14296606 0.057027653
-0.14336067 -0.14294054 0.049185053
-0.1678426 -0.11206684 0.3713423
-0.1688261 -0.11272436 0.36350051
-0.16903898 -0.112987 0.35565233
-0.1692954 -0.11325581 0.3477996
-0.16924618 -0.11314688 0.33997703
-0.16902061 -0.11291923 0.33213618
-0.16778614 -0.11176914 0.32435906
-0.1665405 -0.11051434 0.31654423
-0.16703795 -0.11069119 0.30849856
-0.16771929 -0.11100658 0.30053088
-0.16861989 -0.11186176 0.29256541
-0.16973142 -0.11294114 0.28452718
-0.1707183 -0.11383557 0.27662092
-0.17056786 -0.11361562 0.2687341
-0.17065614 -0.11376856 0.26085997
-0.1704552 -0.11358611 0.25299603
-0.16766316 -0.11180687 0.24529144
-0.1662678 -0.11109461 0.23748744
-0.16629055 -0.11111281 0.2296167
-0.1662939 -0.11111408 0.22176471
-0.16677982 -0.11156527 0.21391408
-0.16706638 -0.11183637 0.20606601
-0.1675996 -0.11228731 0.19819197
-0.16787057 -0.11236998 0.19030888
-0.16922508 -0.11372826 0.18237481
-0.16841169 -0.11286552 0.17458789
-0.16831629 -0.11283062 0.16674988
-0.16802591 -0.11252443 0.15892634
-0.16780828 -0.1123073 0.15109776
-0.16758205 -0.11213527 0.1432656
-0.1666535 -0.11141016 0.13547078
-0.1662939 -0.11111408 0.12764707
-0.1662939 -0.11111408 0.11980393
-0.1662939 -0.11111408 0.11196079
-0.16816933 -0.11239701 0.10409915
-0.1702226 -0.11388158 0.096227527
-0.17018636 -0.11385407 0.088384949
-0.17015015 -0.11382651 0.080542371
-0.17011391 -0.11379901 0.072699785
-0.17007765 -0.11377149 0.0648572
-0.17004143 -0.11374394 0.057014629
-0.17000522 -0.11371642 0.049172074
-0.18506043 -0.076973885 0.37140232
-0.18541542 -0.077167429 0.36357176
-0.18555261 -0.077260979 0.35573459
-0.18570732 -0.077349901 0.34789163
-0.18593492 -0.077481799 0.34003854
-0.18611284 -0.077570349 0.33217615
-0.18506104 -0.076894492 0.32434186
-0.18424502 -0.076343842 0.31648153
-0.18537553 -0.076847337 0.30850837
-0.18745044 -0.077753529 0.30050111
-0.1880763 -0.078163542 0.29256523
-0.18794678 -0.078017622 0.28468102
-0.18800063 -0.078034304 0.27678728
-0.18798597 -0.078000166 0.2688953
-0.18797569 -0.077984683 0.26100418
-0.18791951 -0.077946156 0.25311577
-0.18625678 -0.077142805 0.24530971
-0.18475039 -0.076525711 0.23748799
-0.18587661 -0.076936573 0.2296152
-0.18735395 -0.07745897 0.22176687
-0.18751346 -0.077505559 0.21392359
-0.18796043 -0.077627927 0.2060792
-0.18843831 -0.077748738 0.1982324
-0.18846063 -0.077754535 0.19038913
-0.1895142 -0.077988796 0.18253279
-0.19051036 -0.078180514 0.17467193
-0.18913305 -0.077770703 0.16683523
-0.18496461 -0.076562218 0.15901543
-0.18491869 -0.076556012 0.15117331
-0.1847759 -0.076536715 0.14333335
-0.1847759 -0.076536715 0.13549021
-0.1847759 -0.076536715 0.12764707
-0.1847759 -0.076536715 0.11980393
-0.1847759 -0.076536715 0.11196079
-0.185212 -0.076768629 0.10411528
-0.18541513 -0.076876663 0.096271038
-0.18543158 -0.076885596 0.088427804
-0.18558821 -0.076976053 0.080583468
-0.18590485 -0.077158764 0.072737932
-0.18607889 -0.077259265 0.064893469
-0.18607952 -0.077259801 0.057050318
-0.18561848 -0.076976843 0.049210668
-0.19456592 -0.038908124 0.37147635
-0.19468084 -0.038940985 0.36364844
-0.19478941 -0.038962238 0.35581309
-0.19499774 -0.039020013 0.3479681
-0.19502321 -0.038997829 0.34011495
-0.19512652 -0.038995873 0.33225113
-0.19507425 -0.038868256 0.32438174
-0.19512585 -0.038801938 0.3165004
-0.19545679 -0.038899023 0.30859983
-0.19585563 -0.039015837 0.30068949
-0.19600083 -0.039029919 0.29278275
-0.19604337 -0.038997319 0.28487459
-0.19613384 -0.038987868 0.27696237
-0.19616896 -0.038988393 0.26905215
-0.19619226 -0.038990561 0.26114979
-0.19619165 -0.038996637 0.25325292
-0.19616969 -0.038995516 0.24536175
-0.19615434 -0.039006408 0.23747936
-0.19615787 -0.039016452 0.22961223
-0.19616584 -0.0390209 0.22176473
-0.19947068 -0.039857842 0.21389751
-0.20184718 -0.040278587 0.20607366
-0.20281346 -0.040241331 0.1982224
-0.20326221 -0.040229175 0.19038603
-0.20373821 -0.040216018 0.18254703
-0.20412815 -0.040141191 0.17470536
-0.20455003 -0.040027164 0.16686402
-0.20445812 -0.039827656 0.15902323
-0.20318614 -0.039744455 0.15116468
-0.20179987 -0.039716031 0.14330411
-0.19945094 -0.039472338 0.13545318
-0.19694823 -0.039100181 0.12764226
-0.19615705 -0.039018076 0.11980393
-0.19615705 -0.039018076 0.11196079
-0.19617318 -0.039021593 0.10411757
-0.19855988 -0.039452791 0.096252084
-0.19955514 -0.039540987 0.088388517
-0.20085943 -0.039575655 0.080529794
-0.2008353 -0.03957013 0.072687179
-0.20031638 -0.039560478 0.064849406
-0.20024924 -0.039552566 0.057007357
-0.19968097 -0.03952786 0.049171194
-0.19787543 -9.0916576e-05 0.36372691
-0.19799991 -8.4946027e-05 0.35588598
-0.19817044 -8.9668982e-05 0.34803438
-0.19829389 -6.0532271e-05 0.34017199
-0.19853193 -3.3680033e-05 0.33229959
-0.19910906 5.3191059e-05 0.32442209
-0.19970129 0.00013653071 0.31653461
-0.20009027 0.00017868658 0.30863392
-0.20066643 0.00025216312 0.30072761
-0.20149074 0.00037151968 0.29282188
-0.20208745 0.00045437514 0.28491166
-0.20340459 0.00066565158 0.27700776
-0.20423272 0.00079629006 0.26911321
-0.20528279 0.00097366777 0.26123565
-0.20601986 0.0010971151 0.25336251
-0.2071507 0.001267727 0.245482
-0.2069004 0.0012162145 0.23759006
-0.20768471 0.00141954 0.22971673
-0.20612188 0.0010961433 0.22183979
-0.20539187 0.00092615356 0.2139975
-0.20496273 0.00045108396 0.20615883
-0.2050612 0.00014404317 0.19830976
-0.20563041 -1.5157937e-05 0.19044285
-0.20565353 -0.00033523966 0.18256983
-0.20650743 -0.0005423922 0.17468773
-0.20623007 -0.00023764717 0.16689242
-0.20626266 -3.010249e-05 0.1590883
-0.20657365 4.8882393e-05 0.15125974
-0.20671788 0.00020630383 0.14343143
-0.20556478 0.00030837007 0.13557878
-0.20501652 0.00036182645 0.12773898
-0.20447104 0.00037688212 0.11989225
-0.20387037 0.00038154944 0.11204468
-0.20288186 0.00020893003 0.10416295
-0.20192161 2.2420081e-05 0.096254431
-0.20421226 -0.00011975203 0.08837191
-0.20455149 -5.120386e-05 0.080525726
-0.20457339 -2.6744017e-05 0.072684258
-0.20537595 0.00022340452 0.064850867
-0.2052577 0.00030235696 0.057011932
-0.20428284 0.00014063137 0.04916653
-0.19381672 0.038461678 0.36383134
-0.1939656 0.03850117 0.35598469
-0.19413881 0.038545072 0.34812438
-0.19434246 0.038598634 0.34025022
-0.19469693 0.038678374 0.3323648
-0.1957988 0.038896121 0.32447526
-0.1968305 0.039102025 0.31657726
-0.19798484 0.039328478 0.30867022
-0.19906385 0.039533254 0.30075544
-0.19993582 0.039696142 0.29284024
-0.2008637 0.039868813 0.28492609
-0.20169125 0.040021025 0.27701849
-0.20228854 0.040134795 0.26912156
-0.20278691 0.040230479 0.26123539
-0.20241164 0.040162884 0.25333697
-0.20303905 0.040270504 0.24542984
-0.20314486 0.040326428 0.237565
-0.20265947 0.040239844 0.22969183
-0.20217781 0.040156472 0.22182259
-0.20183992 0.040094472 0.21396536
-0.20121114 0.039984848 0.20609492
-0.20080025 0.039907061 0.1982366
-0.19998616 0.039757453 0.19036576
-0.19854681 0.039626978 0.18251194
-0.19676895 0.039062336 0.1747147
-0.19738899 0.039126433 0.16688637
-0.19808154 0.039212823 0.15906079
-0.19900213 0.039309561 0.15124127
-0.20043814 0.039343283 0.14341393
-0.20153855 0.039539278 0.13560504
-0.20088004 0.039667595 0.1277703
-0.20111971 0.0398819 0.11994256
-0.20157789 0.040105477 0.11209224
-0.20164005 0.040195387 0.10422945
-0.20197761 0.040235337 0.096362017
-0.20177718 0.040212836 0.088513553
-0.20188344 0.040237095 0.080673531
-0.20163833 0.04018743 0.072820798
-0.20120461 0.040003262 0.064949229
-0.20069943 0.039716024 0.057070643
-0.19935945 0.039673697 0.049226448
-0.18228216 0.075393453 0.36395955
-0.18246172 0.075480469 0.35610759
-0.18264692 0.075570226 0.34824288
-0.18285523 0.075669281 0.340361
-0.1831082 0.075780146 0.33246225
-0.18352799 0.075924151 0.32454982
-0.18386529 0.076052792 0.31662053
-0.18419307 0.07617718 0.30867755
-0.18441096 0.076275364 0.30072412
-0.18454921 0.076352529 0.29276723
-0.18466131 0.076417387 0.28481504
-0.18472783 0.076465957 0.27687111
-0.1847596 0.076499723 0.26894227
-0.18477254 0.076520614 0.26103723
-0.18477377 0.076531574 0.25315547
-0.18483855 0.076557241 0.24529493
-0.18561548 0.076817736 0.23743789
-0.1856036 0.076813757 0.22959495
-0.18559173 0.076809786 0.22175199
-0.18557985 0.076805808 0.21390903
-0.18598203 0.076897465 0.20605932
-0.18668939 0.077059619 0.19820464
-0.18554422 0.076793879 0.19038017
-0.18553235 0.076789908 0.18253723
-0.18477589 0.076536722 0.17470588
-0.18477589 0.076536722 0.16686274
-0.18477589 0.076536722 0.1590196
-0.18477589 0.076536722 0.15117647
-0.18477589 0.076536722 0.14333335
-0.18477589 0.076536722 0.13549021
-0.18477589 0.076536722 0.12764707
-0.18477589 0.076536722 0.11980393
-0.18479545 0.076541409 0.11196117
-0.18507272 0.076606333 0.10412194
-0.18541707 0.076682672 0.096280061
-0.18573146 0.076753877 0.088439219
-0.18490414 0.076565869 0.08058928
-0.18477589 0.076536722 0.0727451
-0.18477589 0.076536722 0.064901963
-0.18477589 0.076536722 0.057058826
-0.18477589 0.076536722 0.049215689
-0.18477589 0.076536722 0.041372553
-0.16171925 0.10776216 0.35684288
-0.16324562 0.10893154 0.34864819
-0.16423307 0.10964538 0.34052348
-0.16455208 0.10987482 0.33258507
-0.16479139 0.1100448 0.32466307
-0.16502836 0.11021686 0.31672177
-0.16526663 0.11038797 0.30876374
-0.16548952 0.11055094 0.30079284
-0.16569909 0.11070243 0.29281497
-0.16589044 0.11083753 0.28483784
-0.16605306 0.11095043 0.276871
-0.16617709 0.11103527 0.26892665
-0.16625673 0.11108913 0.26101437
-0.16629265 0.11111315 0.25313848
-0.16629395 0.11111402 0.24529412
-0.16629395 0.11111402 0.23745099
-0.16629395 0.11111402 0.22960785
-0.16629395 0.11111402 0.22176471
-0.16629395 0.11111402 0.21392158
-0.16629395 0.11111402 0.20607844
-0.16629395 0.11111402 0.1982353
-0.16629395 0.11111402 0.19039215
-0.16629395 0.11111402 0.18254901
-0.16629395 0.11111402 0.17470588
-0.16629395 0.11111402 0.16686274
-0.16629395 0.11111402 0.1590196
-0.16629395 0.11111402 0.15117647
-0.16629395 0.11111402 0.14333335
-0.16629395 0.11111402 0.13549021
-0.16629395 0.11111402 0.12764707
-0.16629395 0.11111402 0.11980393
-0.16629395 0.11111402 0.11196079
-0.16629395 0.11111402 0.10411765
-0.16629206 0.11111262 0.096274845
-0.16628402 0.11110639 0.088433467
-0.16627461 0.11110034 0.08059226
-0.16627613 0.1111015 0.072749168
-0.16628619 0.11110852 0.064903915
-0.16629377 0.1111139 0.057058871
-0.16629395 0.11111402 0.049215689
-0.16629395 0.11111402 0.041372553
-0.1373568 0.13723706 0.34923515
-0.13911425 0.13898157 0.3407923
-0.1397391 0.13963479 0.33270484
-0.13993587 0.13984852 0.3247866
-0.14014176 0.14007191 0.31684718
-0.14035171 0.14029902 0.30888832
-0.14055935 0.14052294 0.30091348
-0.14075939 0.140737 0.2929278
-0.14094558 0.14093408 0.28493842
-0.14111114 0.14110695 0.27695474
-0.1412466 0.14124702 0.26898843
-0.14133283 0.14134173 0.26105356
-0.14136629 0.14138883 0.25315666
-0.14135437 0.14139464 0.24529588
-0.14132164 0.14138189 0.23745099
-0.14128481 0.14136575 0.22960785
-0.14124773 0.14134896 0.22176471
-0.14121221 0.14133249 0.21392158
-0.14117977 0.14131719 0.20607844
-0.14115134 0.14130369 0.1982353
-0.14112787 0.14129251 0.19039215
-0.14111036 0.14128418 0.18254901
-0.14109944 0.14127898 0.17470588
-0.14109515 0.14127703 0.16686274
-0.1410971 0.14127815 0.1590196
-0.14110523 0.14128231 0.15117647
-0.14111958 0.14128944 0.14333335
-0.14113985 0.1412994 0.13549021
-0.14116547 0.14131179 0.12764707
-0.14119568 0.1413262 0.11980393
-0.1412295 0.14134197 0.11196079
-0.1412656 0.14135836 0.10411765
-0.14130123 0.14137338 0.096274689
-0.14131743 0.141369 0.088435233
-0.14133313 0.14136545 0.080596134
-0.14136608 0.14138199 0.072752431
-0.1414059 0.1414102 0.064904332
-0.14142138 0.14142133 0.057058826
-0.14142138 0.14142133 0.049215689
-0.14142138 0.14142133 0.041372553
-0.10814289 0.16188501 0.34911186
-0.10952093 0.16374241 0.34067956
-0.10964803 0.16394018 0.33279538
-0.10978265 0.16415301 0.32489017
-0.10992348 0.16437963 0.31696305
-0.11006363 0.1646127 0.30901539
-0.11019444 0.1648424 0.30105019
-0.11030842 0.16505896 0.2930719
-0.11039653 0.16525023 0.2850872
-0.11045372 0.16540551 0.27710438
-0.11047305 0.16551283 0.26913285
-0.11045642 0.16557384 0.26117414
-0.11040586 0.16558449 0.25323755
-0.11032257 0.16554099 0.24533162
-0.11021205 0.16545025 0.23745497
-0.11008258 0.16532055 0.22960754
-0.10995914 0.16519199 0.22176428
-0.10984897 0.16507553 0.21392104
-0.10975092 0.16497277 0.20607777
-0.10964701 0.164874 0.19823439
-0.10953025 0.16477418 0.19039083
-0.1094111 0.16467911 0.18254715
-0.10930099 0.16459592 0.17470342
-0.10920902 0.16453075 0.16685967
-0.10914185 0.16448869 0.15901595
-0.10910399 0.16447324 0.15117231
-0.10909799 0.1644866 0.1433287
-0.10912456 0.164529 0.13548517
-0.10918251 0.16459891 0.12764172
-0.10926872 0.16469286 0.11979837
-0.10937901 0.16480632 0.1119551
-0.10950867 0.16493398 0.10411193
-0.10965128 0.1650691 0.096268892
-0.10979681 0.16519825 0.088427141
-0.10994392 0.16532584 0.080585584
-0.11009654 0.16546476 0.072741538
-0.11024566 0.16559847 0.064897627
-0.11039082 0.16572468 0.057055011
-0.11053868 0.16585112 0.049212456
-0.11068016 0.1659693 0.04136993
-0.075242803 0.1814788 0.348611
-0.075382978 0.18175791 0.34070796
-0.07542675 0.18185 0.33284363
-0.075458936 0.1819346 0.3249597
-0.075474203 0.18200627 0.3170557
-0.075467758 0.18205856 0.30913237
-0.07543578 0.18208387 0.30119148
-0.075377963 0.1820766 0.2932362
-0.075296462 0.1820333 0.28527123
-0.07519418 0.1819527 0.27730027
-0.075073689 0.18183689 0.26932371
-0.074932218 0.18167794 0.26134884
-0.074766256 0.18146771 0.25338522
-0.074574791 0.18120107 0.24544227
-0.07436467 0.18089412 0.23751813
-0.074147977 0.18056215 0.22962061
-0.07393717 0.18021919 0.22176093
-0.073746011 0.17990434 0.21391715
-0.073578633 0.17963709 0.20607345
-0.07342767 0.17941213 0.19822976
-0.07328774 0.17922249 0.19038606
-0.073159777 0.17906444 0.18254237
-0.073046207 0.17893523 0.17469868
-0.072949477 0.17883335 0.16685504
-0.072871923 0.17875889 0.15901141
-0.072815858 0.17871392 0.15116784
-0.072783358 0.17870145 0.14332433
-0.072775953 0.17872442 0.13548087
-0.072794728 0.17878582 0.12763745
-0.072840504 0.17888859 0.11979409
-0.072913997 0.17903452 0.11195093
-0.073011644 0.17915457 0.10411882
-0.073130898 0.17920235 0.096309297
-0.073278792 0.17932132 0.08850155
-0.073463425 0.17964371 0.080668435
-0.073690087 0.18017845 0.072800443
-0.073954441 0.18080193 0.064916074
-0.074233942 0.18134272 0.057050079
-0.074508928 0.18178101 0.049206689
-0.074774615 0.18218984 0.041366205
-0.037951451 0.19141744 0.35670775
-0.038389202 0.19280396 0.34854153
-0.038389623 0.19275551 0.3406947
-0.038360212 0.19257759 0.33285296
-0.038313113 0.19235505 0.3249951
-0.038248081 0.19209974 0.31711942
-0.038166676 0.19182307 0.30922526
-0.038071241 0.19153212 0.30131298
-0.037965644 0.19123052 0.29338425
-0.037854236 0.19092844 0.28543794
-0.03773924 0.19063315 0.27747449
-0.037620265 0.19034164 0.26949856
-0.037495192 0.19005077 0.26151681
-0.037361812 0.18976124 0.25353807
-0.037217621 0.18946835 0.24557236
-0.037063193 0.18918215 0.23761819
-0.036904123 0.18890475 0.2296827
-0.03674835 0.18863316 0.22177786
-0.036603302 0.18836527 0.21391416
-0.036473941 0.18812697 0.2060702
-0.036360871 0.1879345 0.19822653
-0.036262747 0.18778163 0.19038293
-0.036178395 0.18766101 0.18253937
-0.036106683 0.18756579 0.17469586
-0.036046889 0.18749121 0.1668524
-0.035998799 0.18743464 0.15900898
-0.035962518 0.18739495 0.15116559
-0.035938304 0.18737179 0.14332226
-0.035926506 0.1873164 0.13548346
-0.035929151 0.18707381 0.12766728
-0.035950977 0.18662499 0.11988389
-0.0359964 0.18604892 0.11213292
-0.036064856 0.18551217 0.10439978
-0.03615173 0.18516222 0.09666393
-0.036251303 0.18507539 0.088907532
-0.03635601 0.18531488 0.081109911
-0.036459249 0.18592054 0.073249191
-0.036559772 0.18688588 0.065309614
-0.036665827 0.18811794 0.057299763
-0.036795214 0.18934776 0.049287885
-0.036961373 0.19018927 0.041392192
0.10697248 0.10687041 0.27318341
0.10583095 0.10572567 0.20398115
0.12269761 0.082048588 0.18091811
0.12188751 0.081638508 0.20398659
0.12156586 0.081487179 0.22705214
0.12161578 0.081545494 0.25011823
0.12213011 0.081867091 0.27318454
0.12300359 0.082402602 0.29625076
0.058671534 -0.14164548 0.31905153
-8.4264728e-05 0.14846861 0.29623041
-4.4050685e-05 0.15120797 0.2731626
-4.3776254e-05 0.14956909 0.20396379
-0.029568767 0.14868604 0.27314848
-0.028645745 0.14468467 0.25008366
-0.028249204 0.14284512 0.20395067
-0.059303291 -0.14306247 0.36513782
-0.059090413 -0.14254966 0.34207344
-0.085589156 -0.12810944 0.36510667
0.13571732 0.055992421 0.27318272
0.029378409 -0.14741126 0.18063706
0.057294 0.13850752 0.20398439
0.057501592 0.13901076 0.22705108
0.057709184 0.139514 0.25011778
0.12676592 -0.084611408 0.29613575
0.12723374 -0.084924601 0.31919795
5.3792326e-05 -0.15487882 0.36513734
0.10700114 -0.10697319 0.22689128
