# .PCD v0.7 - Point Cloud Data file format
VERSION 0.7
FIELDS x y z
SIZE 4 4 4
TYPE F F F
COUNT 1 1 1
WIDTH 427
HEIGHT 1
VIEWPOINT 0 0 0 1 0 0 0
POINTS 427
DATA ascii
-1.1864657 0.099265158 0.068524957
-1.0927987 0.16883089 0.06944681
-0.90323055 0.1684389 0.069665208
-1.155153 8.5190459e-06 0.40685609
-1.1534653 -0.030526167 0.40999997
-1.1444645 -0.059843916 0.4096843
-0.99999595 0.19672027 0.068666652
-0.99999332 0.19342759 0.095333315
-0.99994814 0.19198191 0.12199999
-0.99994296 0.1927056 0.14866665
-0.99999344 0.1950984 0.17543782
-0.9981522 0.17445453 0.33217555
-0.96353006 0.1691597 0.33204269
-0.96400207 0.17034595 0.30743545
-0.96153522 0.19317223 0.17534633
-0.96181542 0.19151647 0.14866666
-0.96186286 0.19122858 0.122
-0.96163732 0.19258115 0.09533333
-0.96113271 0.19540107 0.068666667
-0.92805284 0.16355792 0.37868404
-0.92851067 0.16198112 0.35666785
-0.92929566 0.1613054 0.33279803
-0.92970777 0.16213684 0.30780911
-0.92379642 0.18401079 0.17533332
-0.92413032 0.18319649 0.14866666
-0.92414355 0.1831678 0.122
-0.92386234 0.18385805 0.09533333
-0.92346328 0.1847759 0.068666667
-0.89721161 0.14939706 0.30832404
-0.88888597 0.16629392 0.17533332
-0.88888597 0.16629392 0.14866666
-0.88888597 0.16629392 0.122
-0.88888597 0.16629392 0.09533333
-0.88888597 0.16629392 0.068666667
-0.86004472 0.13943256 0.36183012
-0.86568129 0.13283953 0.33513099
-0.86787176 0.13096531 0.308743
-0.85858643 0.14141312 0.17533395
-0.85857862 0.14142136 0.14866666
-0.85857862 0.14142136 0.122
-0.85857862 0.14142136 0.09533333
-0.85857862 0.14142136 0.068666667
-0.83370608 0.11111405 0.38866666
-0.83724082 0.10948626 0.36202759
-0.84060848 0.1080905 0.33545443
-0.84278703 0.10682978 0.30887094
-0.8348614 0.11046243 0.17538628
-0.83370608 0.11111405 0.14866666
-0.83370608 0.11111405 0.122
-0.83370608 0.11111405 0.09533333
-0.83390427 0.11101462 0.068678081
-0.81618547 0.076226793 0.38821745
-0.82217604 0.074727423 0.36190528
-0.82598436 0.073869988 0.33545795
-0.82767421 0.073531352 0.30891401
-0.82804048 0.073466167 0.28230518
-0.81777418 0.075755611 0.17543106
-0.81524366 0.076529123 0.14866775
-0.81522411 0.076536685 0.122
-0.81696236 0.076164179 0.095401183
-0.82037991 0.075551413 0.069501981
-0.80602807 0.038756169 0.38776946
-0.81260908 0.038213369 0.36177152
-0.81695098 0.037941497 0.33544919
-0.8190065 0.037883546 0.30895865
-0.81946516 0.037902653 0.2823723
-0.80639899 0.038734682 0.17542633
-0.80384296 0.039018072 0.14866666
-0.80547225 0.039000921 0.1219878
-0.8109591 0.039136596 0.095774375
-0.81391156 0.039022166 0.070488229
-0.80214167 0.0001131666 0.38775599
-0.80872184 0.0006107493 0.3617658
-0.81318986 0.0010292155 0.33545554
-0.81566578 0.0013160923 0.30899346
-0.81630147 0.0014428032 0.28242606
-0.80168629 0.00010243826 0.17538999
-0.80216694 0.00033364352 0.14866491
-0.80744219 0.0014943354 0.12200855
-0.81156063 0.0021479814 0.096016847
-0.81397247 0.0023291148 0.071272701
-0.80552793 -0.038649593 0.38785559
-0.81114262 -0.03733645 0.36183137
-0.81513727 -0.036326524 0.33546472
-0.81734771 -0.035691466 0.30896211
-0.81795496 -0.035452887 0.28237718
-0.80959052 -0.037367284 0.17543109
-0.81212449 -0.036048174 0.14865711
-0.81520045 -0.034854006 0.12199926
-0.8175528 -0.034156058 0.095952265
-0.81575644 -0.07631404 0.38835633
-0.81999987 -0.074604377 0.36198139
-0.82325268 -0.073233515 0.33547825
-0.82514536 -0.072351418 0.30891889
-0.82571006 -0.072023563 0.28230941
-0.82502753 -0.072273113 0.25564918
-0.82366639 -0.072336003 0.17542267
-0.82569319 -0.070848636 0.14865065
-0.82747364 -0.069734648 0.12193873
-0.82860601 -0.069222681 0.095645249
-0.83370608 -0.11111404 0.38866666
-0.83524048 -0.11012099 0.36203325
-0.83767343 -0.10861502 0.33543611
-0.83923113 -0.10753371 0.30883634
-0.83975333 -0.10710237 0.28220993
-0.83929044 -0.10734799 0.25554723
-0.83799469 -0.10818825 0.22884677
-0.83947265 -0.10724749 0.2021223
-0.84146941 -0.10528713 0.17539674
-0.84312057 -0.10358739 0.14864971
-0.84423566 -0.10252457 0.12187994
-0.84461081 -0.10233738 0.095241189
-0.85857862 -0.14142136 0.38866666
-0.85857862 -0.14142136 0.36199999
-0.85891116 -0.14106514 0.33534384
-0.86075801 -0.13902563 0.30873585
-0.86111295 -0.13861454 0.28210324
-0.86030102 -0.13953319 0.25544018
-0.85967135 -0.14015566 0.22874846
-0.86157268 -0.13813952 0.20205672
-0.86356217 -0.13532405 0.17536764
-0.86497653 -0.13327506 0.14865991
-0.8657521 -0.13228163 0.12189924
-0.86576259 -0.13246496 0.095049381
-0.8647545 -0.13405833 0.068042502
-0.88888597 -0.16629393 0.38866666
-0.88955063 -0.16493119 0.36198497
-0.89183217 -0.15960316 0.33529687
-0.89327317 -0.15630871 0.30867189
-0.89363146 -0.15511493 0.28206185
-0.8930192 -0.15600187 0.25542477
-0.89166063 -0.15910158 0.22873938
-0.88974154 -0.1637878 0.20201263
-0.89102751 -0.16023202 0.17534471
-0.89198256 -0.15818262 0.14867005
-0.89247972 -0.15747814 0.12197777
-0.89239514 -0.1580677 0.095270239
-0.89146864 -0.1602819 0.06861116
-0.92349386 -0.18469703 0.38860989
-0.92520034 -0.17884725 0.36180174
-0.92677915 -0.17301743 0.33516479
-0.92768687 -0.16911185 0.3086012
-0.92786896 -0.1672294 0.28202006
-0.92741239 -0.1672688 0.25538647
-0.92541909 -0.17205343 0.20202474
-0.92504716 -0.17360558 0.17534789
-0.92498904 -0.17429994 0.14867392
-0.92510819 -0.17486434 0.121978
-0.92527467 -0.1756012 0.095261931
-0.92548949 -0.17596529 0.069056213
-0.96152365 -0.18345809 0.38280246
-0.96217018 -0.18360434 0.3603062
-0.96299636 -0.18254489 0.33495784
-0.96328491 -0.17830996 0.30849761
-0.9631651 -0.17582498 0.28195995
-0.96263009 -0.17490157 0.25534838
-0.9613831 -0.17676504 0.20202854
-0.96124315 -0.17820299 0.17535737
-0.96144742 -0.17962369 0.14868078
-0.96183389 -0.18095317 0.12194257
-0.96224868 -0.18205701 0.095236383
-0.99797457 -0.17934464 0.37900293
-0.99865198 -0.18162106 0.35844642
-0.99958748 -0.18365845 0.33474195
-0.99973708 -0.18404432 0.3084068
-0.99925065 -0.18124808 0.28192139
-0.99830598 -0.17929538 0.25532967
-0.99750328 -0.17865902 0.22869271
-0.9971202 -0.17904909 0.20203356
-0.99725848 -0.18021652 0.17536785
-0.9978559 -0.18196315 0.14869431
-0.99872142 -0.18401088 0.12196154
-0.9995802 -0.18599088 0.095206931
-1.0331422 -0.17170916 0.37687755
-1.0344145 -0.1752398 0.35738978
-1.035796 -0.17890728 0.33449858
-1.0368661 -0.18251522 0.30833709
-1.0363164 -0.18369979 0.28189418
-1.0342095 -0.18025443 0.25532266
-1.0329072 -0.17839764 0.22870034
-1.0325072 -0.17783061 0.20204446
-1.0329428 -0.17874418 0.17538343
-1.034109 -0.18104906 0.14871737
-1.0357801 -0.18420152 0.12203436
-1.0375109 -0.18761824 0.095274054
-1.0381572 -0.18937093 0.068312198
-1.0673007 -0.16096631 0.37653214
-1.0694625 -0.16531546 0.35753909
-1.0712645 -0.16920052 0.33475515
-1.0716244 -0.17063867 0.30838215
-1.0704761 -0.17043476 0.28189936
-1.069586 -0.17095439 0.25531164
-1.0677369 -0.16910791 0.22868457
-1.0671755 -0.16879475 0.20204908
-1.0678227 -0.17015758 0.17540804
-1.0696105 -0.17320043 0.14875552
-1.0725049 -0.17796378 0.12207162
-1.0763575 -0.18441711 0.095335022
-1.0765367 -0.1847759 0.068666667
-1.1011244 -0.14841911 0.37865195
-1.1041487 -0.15290201 0.35905409
-1.1061099 -0.15607098 0.33532816
-1.1049167 -0.15524019 0.30852634
-1.1011277 -0.15273564 0.25534049
-1.1001103 -0.15233132 0.22870588
-1.0996815 -0.15232939 0.20207782
-1.1004304 -0.15352821 0.1754577
-1.1024556 -0.15619479 0.14884037
-1.1058998 -0.16047373 0.12218294
-1.111114 -0.1662939 0.09533333
-1.111114 -0.1662939 0.068666667
-1.1341956 -0.13227472 0.38255435
-1.1374317 -0.13602619 0.36093599
-1.1403294 -0.14006163 0.33542711
-1.1303343 -0.13153498 0.25538814
-1.1293513 -0.13086024 0.228737
-1.129348 -0.13097906 0.20210904
-1.130209 -0.1319571 0.17551672
-1.1320791 -0.13398312 0.14898461
-1.1346152 -0.13660477 0.12253638
-1.1350031 -0.13710396 0.09625107
-1.136645 -0.13830096 0.069840461
-1.1660802 -0.11100646 0.36201394
-1.155553 -0.105703 0.28214863
-1.1528465 -0.10404266 0.25570875
-1.1528662 -0.10383884 0.22912732
-1.1550034 -0.10482839 0.20223154
-1.1559068 -0.10512419 0.17555362
-1.1563017 -0.10528266 0.14912492
-1.1561189 -0.10555255 0.12297847
-1.15575 -0.10595975 0.097386561
-1.1562328 -0.10666557 0.072858661
-1.1793166 -0.074992806 0.36195582
-1.1677045 -0.071858235 0.28238577
-1.1673622 -0.071288198 0.22962199
-1.1706001 -0.071849957 0.20285559
-1.1751544 -0.0727254 0.1755117
-1.1766168 -0.072970249 0.14903831
-1.1758692 -0.073111497 0.12289553
-1.1738428 -0.07334926 0.097525917
-1.1719655 -0.074586898 0.0735531
-1.1896493 -0.038235314 0.38623306
-1.1845231 -0.03753772 0.36094829
-1.1744468 -0.03642593 0.28251523
-1.1917337 -0.038995013 0.17533691
-1.1958972 -0.039014097 0.14866666
-1.1938249 -0.038807224 0.12212357
-1.1892568 -0.038242947 0.096440256
-1.1846436 -0.00043988545 0.38160044
-1.1832688 -0.00013207911 0.35905871
-1.1823432 2.873688e-05 0.33444703
-1.1766835 -0.00046971973 0.28253382
-1.1892117 -0.0017969862 0.17534927
-1.1920847 -0.001529898 0.14866666
-1.1951603 -0.00085781759 0.122
-1.2 2.3849762e-09 0.09533333
-1.1756035 0.035689384 0.37826395
-1.1768998 0.036342587 0.35740083
-1.1785004 0.036813732 0.33390224
-1.1785011 0.03648841 0.30842799
-1.1752698 0.035697032 0.28242919
-1.1778244 0.033159658 0.17538205
-1.1795442 0.033085611 0.14873934
-1.1821339 0.033695105 0.12210158
-1.1862005 0.035224419 0.095395051
-1.1890028 0.03655709 0.068456843
-1.162462 0.069573715 0.37620193
-1.165347 0.070988841 0.35620049
-1.1691165 0.072379313 0.33347195
-1.1733586 0.073144168 0.30863222
-1.1699481 0.071911432 0.28217867
-1.1668901 0.070615306 0.25590941
-1.1635876 0.06683369 0.17541677
-1.1638467 0.066128254 0.14882821
-1.1651196 0.066190459 0.12233373
-1.16729 0.067058906 0.096086852
-1.1694669 0.068367258 0.070472166
-1.1446532 0.10043692 0.37497318
-1.1483026 0.10275381 0.35532337
-1.1537009 0.10561102 0.33306533
-1.1611332 0.10877112 0.30865031
-1.1583964 0.10755628 0.28202546
-1.1555519 0.10618776 0.25535178
-1.1528965 0.10430365 0.22868863
-1.1470863 0.099264555 0.1754196
-1.1459175 0.097630642 0.14885031
-1.146009 0.097043186 0.12241178
-1.1472967 0.097685695 0.096260265
-1.1493564 0.09935613 0.07081227
-1.1309882 0.13423625 0.33252367
-1.1392512 0.13992469 0.30845755
-1.1414213 0.14142133 0.28200001
-1.1414213 0.14142133 0.25533333
-1.1390837 0.13914315 0.22866739
-1.1321068 0.13375114 0.20201646
-1.1283031 0.13036667 0.17538127
-1.1256682 0.12734808 0.14877178
-1.1247337 0.12596868 0.12223813
-1.1254331 0.12649696 0.09585686
-1.1275712 0.12881772 0.069778666
-1.0978882 0.1528538 0.35473734
-1.101635 0.15628396 0.33207089
-1.1067156 0.16112651 0.30776471
-1.111114 0.16629392 0.28200001
-1.1081983 0.16203305 0.20199999
-1.1069601 0.16027583 0.17533328
-1.1025436 0.15462622 0.1486463
-1.1007156 0.15218802 0.12195986
-1.1009508 0.1526565 0.095247522
-1.1031156 0.15586494 0.06833151
-1.0661298 0.16722101 0.35552865
-1.0681262 0.16849969 0.33211571
-1.0708885 0.17118767 0.30740964
-1.0741246 0.17924568 0.17533328
-1.0718268 0.17417412 0.14865887
-1.0708264 0.1721293 0.1219562
-1.0712034 0.17305546 0.095206954
-1.0729151 0.17678612 0.068347961
-1.0322564 0.17468549 0.35610956
-1.0332991 0.17521125 0.33259642
-1.0347883 0.17693742 0.30771494
-1.0380261 0.1910231 0.17533419
-1.0371903 0.18704604 0.14866647
-1.0368979 0.18567473 0.12199702
-1.037217 0.18697228 0.095323287
-1.0380254 0.19067112 0.068653971
-0.96214563 -0.17931545 0.39948505
-0.99784327 -0.17459702 0.39436269
-1.0319409 -0.1668552 0.39162135
-1.0648177 -0.15592067 0.3909356
-1.183318 -0.00072578801 0.39948723
-1.1722157 0.034610998 0.39440838
-1.1279861 -0.085489661 0.40447032
-1.1069424 -0.1066941 0.40052906
-1.0822936 -0.12264289 0.39718544
-1.055837 -0.13518512 0.39597669
-1.0279325 -0.14386815 0.39626753
-0.99902612 -0.1482213 0.39786154
-0.96966851 -0.14787875 0.40088707
-0.94057018 -0.14274883 0.40581924
-0.82656598 -0.034498177 0.41
-0.83662868 -0.067670606 0.41
-0.85296971 -0.098242484 0.41
-0.87496102 -0.12503898 0.41
-0.90175754 -0.14703029 0.41
-0.9391945 -0.14681275 0.40973479
-0.93243897 -0.16265538 0.40974581
-0.96851671 -0.15545441 0.4074595
-0.9654839 -0.16679135 0.40568382
-0.99911809 -0.15691832 0.40512455
-0.99847263 -0.16556956 0.4023
-1.0296239 -0.15243781 0.40343353
-1.0307227 -0.15951766 0.40008965
-1.0591687 -0.14313659 0.40300685
-1.0618731 -0.14934537 0.399488
-1.0872403 -0.12996332 0.40452385
-1.0919285 -0.13610351 0.40126985
-1.1129313 -0.11280292 0.40787679
-1.1329858 -0.089051388 0.40993762
-1.1451507 -0.096746914 0.40885016
-1.1447991 -0.059983339 0.41001976
-1.1633706 -0.06767033 0.41000012
-1.1534653 -0.030526167 0.40999997
-1.173434 -0.034498189 0.41
-1.1584141 7.3459014e-05 0.40960202
-1.1715558 -0.00021485801 0.40683949
-1.1558589 0.031287577 0.40736523
-1.1643412 0.032993264 0.40351585
-1.1300523 -0.086908273 0.33822173
-1.1293675 -0.086501382 0.35610253
-1.1286353 -0.085981421 0.37395823
-1.1280899 -0.085583381 0.39094982
-1.1445084 -0.059861716 0.39109439
-1.1445606 -0.059879031 0.37344772
-1.1433971 -0.059428927 0.35584974
-1.0003493 -0.14984618 0.3206917
-0.999933 -0.14779489 0.33924484
-0.99947393 -0.14682707 0.35685039
-0.99912691 -0.14663771 0.37315685
-0.99898249 -0.14701904 0.38731796
-1.0276818 -0.1424523 0.38639796
-1.0277905 -0.14200102 0.37294197
-1.0282097 -0.14234447 0.35710043
-1.0288719 -0.14359002 0.33963668
-1.0296247 -0.14556111 0.32075411
-0.94040495 -0.14349294 0.40930098
-0.96949226 -0.15034781 0.40638423
-0.99921536 -0.15139459 0.40376782
-1.0286553 -0.14715762 0.40208477
-1.1529962 -0.030423192 0.39116415
-1.05709 -0.13822125 0.40165138
-1.0840093 -0.1253344 0.40302998
-1.1087439 -0.1086774 0.40644756
-1.057831 -0.13710831 0.32066515
-1.0570506 -0.13569693 0.33970293
-1.0561241 -0.1342431 0.35732651
-1.0555274 -0.13359314 0.37307137
-1.0553946 -0.13386118 0.38629955
-1.1290214 -0.086250626 0.40907472
-1.0818011 -0.12168401 0.38714898
-1.0821308 -0.12187067 0.37350884
-1.0830535 -0.12292464 0.35729587
-1.0841746 -0.12433459 0.33936787
-1.1444628 -0.059840925 0.4100188
-1.1534653 -0.030526167 0.40999997
-1.1559387 2.4975807e-05 0.40974575
-1.1516601 0.030313939 0.40716678
-0.88935769 -0.11064234 0.35582787
-0.88935769 -0.11064234 0.37344763
-0.91306889 -0.13010164 0.39106739
-0.91306889 -0.13010164 0.3734476
-0.91313171 -0.13000207 0.35582837
-0.9140808 -0.12827115 0.33825743
-1.1094123 -0.10901958 0.33877361
-1.1081175 -0.10759379 0.35689533
-1.1071469 -0.10666392 0.37415928
-1.1066433 -0.10626201 0.38927937
-0.97053742 -0.1472784 0.33854181
-0.97021252 -0.14703071 0.35650307
-0.96986252 -0.14706421 0.37346661
-0.96972597 -0.14719187 0.38884661
-0.94163263 -0.14000769 0.33831817
-0.94080728 -0.14266752 0.35584936
-0.94041348 -0.14353059 0.37353069
-0.9405219 -0.14291625 0.39069974
-1.126544 0.085369542 0.33844626
-1.1392176 0.058518466 0.33854234
