# .PCD v0.7 - Point Cloud Data file format
VERSION 0.7
FIELDS x y z
SIZE 4 4 4
TYPE F F F
COUNT 1 1 1
WIDTH 416
HEIGHT 1
VIEWPOINT 0 0 0 1 0 0 0
POINTS 416
DATA ascii
-1.192413 0.86423403 0.074780323
-1.1924464 0.9335767 0.074982114
-1.1924038 1.00291 0.075103059
-1.1922835 1.0722443 0.075142428
-1.0982748 0.79501092 0.074747145
-1.0040538 0.79515469 0.074899174
-0.90964854 0.79529333 0.074975491
-0.81583863 0.93444151 0.075611264
-1 1.2 0.095333315
-1 1.2 0.12199999
-1 1.2 0.14866665
-1 1.2 0.17533332
-1 1.2 0.20199999
-0.99999911 1.1999731 0.22866666
-0.99999881 1.1999639 0.25533333
-1.0001926 1.1983311 0.28195256
-1.0009662 1.1873717 0.3072072
-1.000908 1.1781299 0.33039847
-1.0003517 1.1718687 0.3516714
-0.99949193 1.167766 0.37049091
-0.96711743 1.1615722 0.36876488
-0.96715999 1.1654315 0.35034084
-0.96670353 1.1716195 0.32964551
-0.96541315 1.1811752 0.30741718
-0.96398586 1.186663 0.28177613
-0.96331888 1.1888846 0.25533625
-0.96373153 1.1879467 0.22866997
-0.96388185 1.1876906 0.20200084
-0.96381462 1.1879128 0.17533374
-0.9635939 1.1884429 0.14866681
-0.96324241 1.1892542 0.12200003
-0.96266735 1.1907092 0.09533333
-0.9357065 1.1520451 0.3692804
-0.9351123 1.1550908 0.35066426
-0.93409836 1.1597962 0.32967848
-0.93236446 1.1661263 0.30681971
-0.93015313 1.1714184 0.28171045
-0.92786402 1.1746488 0.25533599
-0.92843097 1.1736252 0.22867033
-0.92866838 1.1733003 0.20200291
-0.92850757 1.1737211 0.17533381
-0.92804623 1.1746526 0.14866686
-0.92738158 1.1759443 0.12200005
-0.92644835 1.1779059 0.09533333
-0.90526378 1.1388499 0.37146115
-0.90437859 1.1407988 0.35220543
-0.90316075 1.1439332 0.33052319
-0.90097636 1.1488056 0.30727756
-0.89901781 1.1525915 0.28187102
-0.8992002 1.1521862 0.2553198
-0.8992157 1.1519848 0.22867145
-0.89857334 1.1525966 0.20200713
-0.89658588 1.1548371 0.17533924
-0.89335912 1.1588026 0.1486668
-0.89240891 1.1602502 0.12200003
-0.89136338 1.1621013 0.09533333
-0.87509066 1.1231821 0.37600607
-0.87490416 1.1230813 0.35512084
-0.87419373 1.1240373 0.33202332
-0.87268144 1.126327 0.30754906
-0.87198412 1.1280713 0.2818715
-0.87241977 1.1277071 0.25531319
-0.87247401 1.1276891 0.22867154
-0.87197393 1.1281515 0.20201479
-0.87059879 1.129469 0.17535812
-0.86837351 1.1317296 0.14870965
-0.86573648 1.1344111 0.12206337
-0.86063004 1.1395082 0.095374011
-0.85243541 1.0952582 0.3760218
-0.85248977 1.0953794 0.35511047
-0.85150784 1.0966126 0.33210832
-0.84886086 1.0993396 0.30778006
-0.84721291 1.1013224 0.2819387
-0.84777325 1.1011432 0.25532272
-0.84794098 1.1012834 0.2286732
-0.84780961 1.1013412 0.2020155
-0.846986 1.1017177 0.17537186
-0.84533101 1.1028278 0.14875329
-0.84347731 1.1045785 0.12218066
-0.84118158 1.1069362 0.095658101
-0.83476585 1.0648228 0.35597342
-0.83468604 1.06555 0.33230734
-0.83218277 1.067621 0.30766681
-0.8280111 1.0702903 0.28195748
-0.82672507 1.0716149 0.2553345
-0.82594419 1.0729558 0.228673
-0.82619298 1.0725439 0.20200557
-0.82588726 1.0717126 0.17536274
-0.82388693 1.0721204 0.14875495
-0.82345635 1.0727195 0.12225791
-0.82377517 1.0732096 0.096030571
-0.82993102 1.0316591 0.3750366
-0.82527268 1.031896 0.356085
-0.82436806 1.032172 0.33250669
-0.82207233 1.0335124 0.30760041
-0.81694579 1.0358213 0.28195319
-0.81208456 1.038404 0.25534219
-0.81370926 1.0377766 0.20201051
-0.80957967 1.0381682 0.1753372
-0.80384296 1.039018 0.14866666
-0.8059274 1.0385081 0.12209406
-0.80921221 1.0377438 0.095933013
-0.82885826 0.99745512 0.37356606
-0.82338673 0.99727225 0.35535753
-0.81982929 0.99741161 0.3326695
-0.81814921 0.99809206 0.30765957
-0.81501234 0.99932367 0.28185159
-0.81237501 1.0004265 0.25533694
-0.80805314 1.0005323 0.20202102
-0.80251652 1.0000935 0.17533678
-0.80000001 1 0.14866666
-0.80000001 1 0.122
-0.80000001 1 0.09533333
-0.83254105 0.96323323 0.37325072
-0.82568085 0.96222329 0.35508078
-0.81905991 0.96172953 0.33331916
-0.81818032 0.96205527 0.30805016
-0.81713009 0.96267712 0.28192842
-0.81683445 0.96325159 0.25535646
-0.80980581 0.96250379 0.20204747
-0.80384296 0.96098197 0.17533332
-0.80384296 0.96098197 0.14866666
-0.80384296 0.96098197 0.122
-0.80384296 0.96098197 0.09533333
-0.83376032 0.92758077 0.35607803
-0.82747692 0.9264257 0.33354941
-0.82267118 0.92564905 0.30849713
-0.82501465 0.92641872 0.28194329
-0.8258363 0.92696071 0.25538781
-0.81551635 0.92358482 0.1753388
-0.81522405 0.92346334 0.14866666
-0.81522405 0.92346334 0.122
-0.81522405 0.92346334 0.09533333
-0.81522405 0.92346334 0.068666667
-0.84599876 0.8936308 0.35821849
-0.84002584 0.89178979 0.33453652
-0.83530372 0.88989085 0.30865848
-0.83785439 0.89110076 0.28198963
-0.83964163 0.89199162 0.25540397
-0.83432913 0.88929266 0.17535387
-0.83370608 0.88888597 0.14866666
-0.83370608 0.88888597 0.122
-0.83370608 0.88888597 0.09533333
-0.83370608 0.88888597 0.068666667
-0.85945964 0.85934782 0.33532542
-0.85865545 0.85865235 0.30866677
-0.85857862 0.85857862 0.28200001
-0.859097 0.85905588 0.25534496
-0.85857862 0.85857862 0.17533332
-0.85857862 0.85857862 0.14866666
-0.85857862 0.85857862 0.122
-0.85857862 0.85857862 0.09533333
-0.85857862 0.85857862 0.068666667
-0.88898724 0.83389223 0.30866697
-0.88891119 0.83375365 0.28200018
-0.88888597 0.83370608 0.25533333
-0.88888597 0.83370608 0.17533332
-0.88888597 0.83370608 0.14866666
-0.88888597 0.83370608 0.122
-0.88888597 0.83370608 0.09533333
-0.88888597 0.83370608 0.068666667
-0.925228 0.82055956 0.30868593
-0.92495584 0.81986904 0.28203648
-0.92346328 0.81522411 0.17533332
-0.92346328 0.81522411 0.14866666
-0.92346328 0.81522411 0.122
-0.92346328 0.81522411 0.09533333
-0.92346328 0.81522411 0.068666667
-0.96098197 0.8038429 0.17533332
-0.96098197 0.8038429 0.14866666
-0.96098197 0.8038429 0.122
-0.96098197 0.8038429 0.09533333
-0.96098197 0.8038429 0.068666667
-1 0.80000001 0.17533332
-1 0.80000001 0.14866666
-1 0.80000001 0.122
-1 0.80000001 0.09533333
-1 0.80000001 0.068666667
-1.039018 0.8038429 0.17533332
-1.039018 0.8038429 0.14866666
-1.039018 0.8038429 0.122
-1.039018 0.8038429 0.09533333
-1.039018 0.8038429 0.068666667
-1.0765367 0.81522411 0.17533332
-1.0765367 0.81522411 0.14866666
-1.0765367 0.81522411 0.122
-1.0765367 0.81522411 0.09533333
-1.0765367 0.81522411 0.068666667
-1.111114 0.83370608 0.17533332
-1.111114 0.83370608 0.14866666
-1.111114 0.83370608 0.122
-1.111114 0.83370608 0.09533333
-1.111114 0.83370608 0.068666667
-1.1414213 0.85857862 0.17533332
-1.1414213 0.85857862 0.14866666
-1.1414213 0.85857862 0.122
-1.1414213 0.85857862 0.09533333
-1.1414213 0.85857862 0.068666667
-1.1662939 0.88888592 0.17533332
-1.1662939 0.88888592 0.14866666
-1.1662939 0.88888592 0.122
-1.1662939 0.88888592 0.09533333
-1.1662939 0.88888592 0.068666667
-1.1847759 0.92346328 0.17533332
-1.1847759 0.92346328 0.14866666
-1.1847759 0.92346328 0.122
-1.1847759 0.92346328 0.09533333
-1.1847759 0.92346328 0.068666667
-1.1961571 0.96098191 0.17533332
-1.1961571 0.96098191 0.14866666
-1.1961571 0.96098191 0.122
-1.1961571 0.96098191 0.09533333
-1.1961571 0.96098191 0.068666667
-1.1851832 1.0017157 0.30810541
-1.1970959 0.99988568 0.17533332
-1.2 1 0.14866666
-1.2 1 0.122
-1.2 1 0.09533333
-1.2 1 0.068666667
-1.1821151 1.0383846 0.33487579
-1.1836749 1.03833 0.30841798
-1.189487 1.0385478 0.28196359
-1.1899924 1.0377318 0.17533332
-1.1906706 1.037719 0.14866666
-1.1921889 1.0380511 0.122
-1.1961571 1.039018 0.09533333
-1.1961571 1.039018 0.068666667
-1.1829196 1.0759366 0.38798505
-1.1766638 1.0745885 0.36169302
-1.1747106 1.0743394 0.3351655
-1.1770022 1.0747902 0.3086063
-1.1820878 1.0758882 0.28199208
-1.1847758 1.0765368 0.25533333
-1.1794083 1.0747983 0.17533332
-1.1781191 1.0740968 0.14866666
-1.1779829 1.0738041 0.122
-1.1788776 1.0738616 0.095240295
-1.1801015 1.0743395 0.068360165
-1.1612715 1.1087272 0.36163715
-1.16118 1.1089239 0.3352637
-1.1629195 1.1095707 0.30865228
-1.1648988 1.1103392 0.28200114
-1.166294 1.111114 0.20199999
-1.166294 1.111114 0.17533332
-1.1629158 1.1093459 0.14866666
-1.160601 1.1079965 0.12196462
-1.1592216 1.1068422 0.095120132
-1.160114 1.1072636 0.068053454
-1.1378713 1.1373745 0.36043221
-1.1375697 1.1378613 0.33486396
-1.1389698 1.1392157 0.30861667
-1.1404816 1.1404598 0.28200316
-1.1407721 1.1407586 0.25533542
-1.1414213 1.1414213 0.20199999
-1.1414213 1.1414213 0.17533332
-1.1414213 1.1414213 0.14866666
-1.1375818 1.1384482 0.12195199
-1.1351191 1.1362025 0.095053233
-1.1034039 1.150488 0.37752041
-1.1048993 1.1539026 0.35685652
-1.1061375 1.1574302 0.33342019
-1.1080766 1.1615552 0.3083232
-1.1099486 1.1645833 0.28200877
-1.1109313 1.1660076 0.25533426
-1.111114 1.1662939 0.22866666
-1.111114 1.1662939 0.20199999
-1.111114 1.1662939 0.17533332
-1.111114 1.1662939 0.14866666
-1.1105108 1.1656091 0.12198977
-1.1069132 1.1614149 0.095028453
-1.0687242 1.1601121 0.37323034
-1.0702724 1.1646158 0.35395071
-1.07179 1.1700944 0.33187351
-1.0737438 1.1768541 0.30776033
-1.0761248 1.1838385 0.28200886
-1.0765367 1.1847759 0.25533333
-1.0765367 1.1847759 0.22866666
-1.0765367 1.1847759 0.20199999
-1.0765367 1.1847759 0.17533332
-1.0765367 1.1847759 0.14866666
-1.0765367 1.1847759 0.122
-1.0750555 1.1822758 0.095231429
-1.0339823 1.1657463 0.37088829
-1.0352155 1.1706969 0.3522459
-1.0363662 1.1771841 0.3308461
-1.0376019 1.1859788 0.30735868
-1.039018 1.1961571 0.28200001
-1.039018 1.1961571 0.25533333
-1.039018 1.1961571 0.22866666
-1.039018 1.1961571 0.20199999
-1.039018 1.1961571 0.17533332
-1.039018 1.1961571 0.14866666
-1.039018 1.1961571 0.122
-1.039018 1.1961571 0.09533333
-0.9672671 1.1581142 0.3835187
-0.99874991 1.1639359 0.3854962
-0.93667394 1.1491593 0.38420033
-0.90692574 1.1367933 0.38699371
-0.87734681 1.1218327 0.39224944
-0.85428911 1.0945425 0.39263308
-0.83431411 1.0317905 0.39006805
-1.0664353 1.1549487 0.38812762
-1.0326047 1.1608949 0.38555932
-0.99884689 1.1582117 0.39474356
-0.99921227 1.152303 0.39877141
-0.96919179 1.1490375 0.39797276
-0.96804899 1.1537782 0.39335775
-0.94062054 1.1407716 0.39882141
-0.93852365 1.1450663 0.39400846
-0.91330212 1.1295872 0.4033947
-0.90993416 1.133436 0.39758182
-0.88916302 1.1106323 0.40441036
-0.88305724 1.1166291 0.40123397
-0.86847782 1.0871564 0.40549472
-0.86038649 1.0916262 0.40229583
-0.85286921 1.0606112 0.40767431
-0.84207356 1.0640382 0.40516877
-0.84837008 1.0301629 0.40256718
-0.84121186 1.0312393 0.39900759
-0.85972166 1.0575547 0.40087706
-0.87539756 1.0826581 0.39820296
-0.8948471 1.1052921 0.39750713
-0.91767478 1.1232241 0.39614844
-0.94362152 1.1339371 0.39217877
-0.970869 1.1416339 0.39134431
-0.99934804 1.1446724 0.392039
-1.1467092 1.0980328 0.40998229
-1.1130927 1.1121876 0.40718508
-1.1220882 1.1202195 0.40548128
-1.0878557 1.1289897 0.40278924
-1.0935174 1.1361376 0.40016124
-1.0599456 1.1419711 0.40096366
-1.0632465 1.1485465 0.3974025
-1.0300093 1.1498991 0.39982483
-1.031256 1.1552254 0.39513624
-0.8485443 0.9993794 0.32068098
-0.84905344 0.99929118 0.3382563
-0.84975863 0.96977198 0.33829838
-0.84913754 0.96966958 0.320647
-0.99937218 1.1477274 0.39790618
-0.97022164 1.1447779 0.39722478
-0.94239247 1.1369487 0.39822775
-0.91596454 1.126047 0.40308338
-0.85936344 1.0579771 0.3207126
-0.86066651 1.0570507 0.33814073
-0.86095595 1.0566406 0.35540238
-0.86040527 1.0568538 0.37235534
-0.85976642 1.0573456 0.38850987
-0.89302641 1.1069695 0.40314609
-0.8518613 1.0286591 0.3557072
-0.85219306 1.0286543 0.33817822
-0.85164392 1.0290058 0.32066637
-0.87334156 1.0840589 0.40397149
-0.85792136 1.0584447 0.40629393
-0.89310157 1.1065533 0.32093203
-0.89373457 1.1055642 0.33825064
-0.89439106 1.1049808 0.3553738
-0.89483386 1.104926 0.3718304
-0.89520675 1.104883 0.38659477
-0.87562793 1.08242 0.38689524
-0.87563342 1.0822407 0.37180564
-0.87540263 1.082368 0.35528708
-0.8744809 1.0832336 0.3381595
-0.87250674 1.0850985 0.32072827
-0.87272489 1.0849327 0.30337867
-0.94212329 1.1401556 0.30346969
-0.94319129 1.1368475 0.32069603
-0.94396245 1.1338483 0.33755141
-0.94439876 1.132009 0.35372001
-0.9445256 1.1314058 0.36871111
-0.94429404 1.1320647 0.38185686
-0.91863722 1.1210452 0.38424015
-0.91889238 1.1200866 0.37002397
-0.91861725 1.1204052 0.3544206
-0.91796827 1.1217399 0.3378979
-0.91696733 1.1239542 0.32090783
-0.91598827 1.1257085 0.30375487
-1.1053364 1.105818 0.38884786
-1.081836 1.1221199 0.38604438
-1.0826242 1.1240391 0.37242132
-1.083317 1.1258173 0.35578316
-1.0838636 1.1268708 0.33837169
-1.0849787 1.1281183 0.32071877
-0.97118616 1.1398723 0.3813591
-0.97132498 1.1393778 0.36846381
-0.97132111 1.1402476 0.35364705
-0.97116727 1.1426209 0.33757684
-0.97079384 1.1466978 0.32069483
-0.97014016 1.1507435 0.30306411
-0.85562205 0.94019377 0.32059115
-1.0593812 1.1435866 0.30305654
-1.0580859 1.1411048 0.32081479
-1.0569454 1.1385975 0.33830395
-1.0562856 1.1367509 0.35523355
-1.0559716 1.1354494 0.3710745
-1.0560008 1.1348268 0.38478631
-1.1086632 1.1079774 0.40583855
-1.0842696 1.1244061 0.40149009
-1.0575818 1.1372794 0.39986405
-1.028982 1.1456183 0.39930132
-1.106512 1.1060947 0.40023968
-1.0823854 1.1221647 0.39593196
-1.0563333 1.134933 0.39446265
-1.0282439 1.1427039 0.3933326
-1.000003 1.1556385 0.30297098
-0.99986261 1.1504867 0.32072371
-0.99961436 1.1466137 0.33792096
-0.99938196 1.1443039 0.35425833
-0.99925768 1.1432437 0.36925715
-0.99926448 1.1433283 0.38218659
-1.0278498 1.1415297 0.38320911
-1.0277556 1.1416661 0.36996639
-1.0279713 1.1428734 0.35467243
-1.0284804 1.1451408 0.33811399
-1.0293226 1.1486105 0.32078683
-1.0304409 1.1531051 0.30299729
