# .PCD v0.7 - Point Cloud Data file format
VERSION 0.7
FIELDS x y z
SIZE 4 4 4
TYPE F F F
COUNT 1 1 1
WIDTH 123
HEIGHT 1
VIEWPOINT 0 0 0 1 0 0 0
POINTS 123
DATA ascii
-3.5228946 -3.089396 0
-3.4289508 -3.089396 0
-3.3418736 3.0914264 0.0081603834
-3.5230155 -2.1174984 0.00017036448
-3.5229325 -2.1868901 5.3376913e-05
-3.5228956 -2.2563002 1.4715183e-06
-3.5228946 -2.3257246 0
-3.5228946 -2.3951492 0
-3.5228946 -2.4645739 0
-3.5228946 -2.5339983 0
-3.5228946 -2.6034229 0
-3.5228946 -2.6728477 0
-3.5228946 -2.7422726 0
-3.5228946 -2.8116972 0
-3.5228946 -2.8811219 0
-3.5228946 -2.9505465 0
-3.5228946 -3.0199714 0
-3.4289508 -3.0199714 0
-3.4289508 -2.9505467 0
-3.4289508 -2.8811221 0
-3.4289508 -2.8116975 0
-3.4289508 -2.7422729 0
-3.4289508 -2.6728482 0
-3.4289508 -2.6034236 0
-3.4289508 -2.5339992 0
-3.4289508 -2.4645746 0
-3.4289508 -2.3951499 0
-3.4289508 -2.3257253 1.7422279e-08
-3.4289804 -2.2563121 4.1970685e-05
-3.4290619 -2.186919 0.00015840978
-3.429193 -2.1175346 0.00035775828
-3.4294538 -2.0480678 0.00089246593
-3.4299583 -1.9783713 0.0021438077
-3.4304266 -1.9086833 0.0033677919
-3.4307451 -1.8391531 0.0041472944
-3.4309511 -1.7697589 0.0045387051
-3.4310679 -1.7004758 0.0046165055
-3.4310956 -1.6313097 0.004362138
-3.4310343 -1.5622624 0.0037693824
-3.4309802 -1.4931964 0.0032023946
-3.4310429 -1.4239392 0.0030833078
-3.4311161 -1.3546268 0.0030571595
-3.4312036 -1.2852422 0.0031702067
-3.4312673 -1.2158427 0.0032602309
-3.4313056 -1.1464332 0.0033139812
-3.4313192 -1.077014 0.0033331113
-3.4313209 -1.0075901 0.0033355081
-3.4313226 -0.93816608 0.0033379029
-3.4313357 -0.86874181 0.0033518663
-3.4314404 -0.79931563 0.0034588275
-3.4316344 -0.72988737 0.0036569713
-3.4318974 -0.66045749 0.0039250823
-3.4322476 -0.59102261 0.0042828042
-3.4327295 -0.5215773 0.0047799232
-3.4333239 -0.45212203 0.0053947791
-3.4339969 -0.38265842 0.0060904711
-3.4347055 -0.31318921 0.006821583
-3.435406 -0.24371746 0.0075432486
-3.4360492 -0.17424677 0.0082092127
-3.4365957 -0.10478016 0.0087796506
-3.4370186 -0.035319969 0.0092302673
-3.4373381 0.034132697 0.009579028
-3.4375699 0.1035758 0.0098638749
-3.4377658 0.17303431 0.010125527
-3.437948 0.24251391 0.010395918
-3.4381423 0.31201333 0.01070555
-3.4383588 0.38154271 0.011080468
-3.4386032 0.45111465 0.011550758
-3.4388399 0.52071786 0.01206984
-3.3381045 -0.66046512 0.0041239839
-3.3385212 -0.59103191 0.0045800377
-3.3390622 -0.52158803 0.0051664095
-3.339716 -0.45213285 0.0058659655
-3.3404417 -0.38266867 0.0066370387
-3.3412023 -0.3131983 0.0074418951
-3.3419428 -0.24372596 0.0082291113
-3.3426142 -0.17425567 0.0089540351
-3.3431773 -0.10479055 0.0095784785
-3.3436279 -0.035332523 0.010098824
-3.3439915 0.034117829 0.010537425
-3.3442762 0.10356207 0.010930429
-3.3445349 0.1730272 0.011321356
-3.3448021 0.24251518 0.011760799
-3.3450818 0.3120259 0.012259951
-3.3453887 0.38157633 0.012853244
-3.3457074 0.45116672 0.013523888
-3.3460066 0.52078509 0.014224538
-3.3462684 0.59042257 0.01491972
-3.3464746 0.66006768 0.015569957
-3.3466115 0.72970778 0.016137512
-3.3466747 0.79933304 0.016596468
-3.3466742 0.86894077 0.016940694
-3.3466263 0.93853313 0.017179141
-3.3465469 1.0081112 0.01732217
-3.3464475 1.07768 0.017386459
-3.3463411 1.147246 0.017394695
-3.3462327 1.2168114 0.017362848
-3.3461232 1.2863735 0.017299635
-3.3460116 1.3559287 0.017209534
-3.3458967 1.4254731 0.017093986
-3.3457787 1.4950041 0.01695209
-3.3456597 1.56452 0.01678188
-3.3455424 1.6340196 0.016581984
-3.3454292 1.7035016 0.016352791
-3.3453205 1.7729657 0.016096815
-3.3452153 1.8424113 0.015818637
-3.3451114 1.9118388 0.015524702
-3.3450074 1.9812489 0.01522285
-3.3449028 2.0506423 0.014921456
-3.3447978 2.1200199 0.014628421
-3.3446946 2.1893847 0.014349964
-3.3445938 2.258739 0.014089257
-3.3444951 2.3280866 0.013845125
-3.3443956 2.3974333 0.013611367
-3.3442893 2.4667833 0.013376922
-3.3441687 2.5361407 0.013126425
-3.3440256 2.6055102 0.012840355
-3.3438504 2.6748931 0.012494715
-3.3436334 2.7442904 0.012061534
-3.3433664 2.8136997 0.01151191
-3.3430431 2.8831182 0.010823734
-3.3426681 2.952544 0.0099966656
-3.3422635 3.0219779 0.0090759723
