# .PCD v0.7 - Point Cloud Data file format
VERSION 0.7
FIELDS x y z
SIZE 4 4 4
TYPE F F F
COUNT 1 1 1
WIDTH 381
HEIGHT 1
VIEWPOINT 0 0 0 1 0 0 0
POINTS 381
DATA ascii
0.98364192 -0.18073997 0.062673762
1.0774351 -0.18072149 0.061757993
1.0761565 0.16578133 0.066740826
1.1710151 -0.11148443 0.062044792
1.1708062 -0.042275041 0.063292436
1.1705697 0.026998673 0.064400353
1.1703068 0.09632092 0.065407783
0.8752389 0.051837683 0.38341433
0.86612844 0.027301097 0.38400358
0.86383569 0.00025596516 0.38332132
0.99839449 0.18669793 0.095407367
0.99913359 0.18978874 0.12201037
0.99907434 0.1884414 0.14867005
0.99880856 0.18291996 0.17535166
1.0008664 0.18639486 0.30881223
1.0007474 0.18866664 0.33512169
1.0350233 0.17815323 0.1753366
1.0349241 0.17911015 0.14868645
1.0348891 0.1798514 0.12207976
1.03478 0.17970072 0.095587663
1.0727963 0.17338613 0.3086831
1.0705485 0.16613053 0.25539255
1.0704076 0.16798261 0.1753408
1.0703511 0.16855083 0.14867641
1.0704451 0.16935627 0.12204745
1.0706222 0.17014723 0.095473088
1.0712661 0.1719436 0.06916216
1.1062908 0.15765134 0.3338553
1.1064601 0.15685479 0.3086744
1.103399 0.15086305 0.25537804
1.1049522 0.15508087 0.17533332
1.1026411 0.1517518 0.14863572
1.1020226 0.15112397 0.12190623
1.1025764 0.15219414 0.095100105
1.104365 0.15523098 0.068094581
1.1358137 0.13389987 0.33378699
1.1363285 0.1343018 0.30866653
1.1328154 0.12963711 0.28199935
1.1311429 0.1278204 0.25533566
1.1291473 0.12733483 0.2019856
1.128353 0.12697063 0.1752966
1.1276541 0.12611857 0.1485734
1.1282265 0.12644623 0.12179044
1.1309594 0.12896095 0.094882242
1.1332197 0.13174908 0.06760484
1.1662751 0.11109846 0.33533269
1.1600784 0.10529908 0.30866638
1.1557878 0.10138341 0.28199866
1.1516593 0.098810695 0.25532806
1.1494588 0.097772069 0.22865503
1.148471 0.097414635 0.2019773
1.1485106 0.097494304 0.17528813
1.1493999 0.097816691 0.14856833
1.150129 0.098258577 0.12178749
1.1520076 0.099857979 0.094895899
1.1553632 0.1026711 0.067744762
1.1843784 0.076347329 0.33533329
1.1761224 0.071810871 0.30866548
1.1710801 0.068959437 0.28199714
1.1674719 0.067195721 0.25532693
1.1648405 0.06614133 0.22865412
1.1633252 0.06560678 0.20197859
1.1629326 0.065551609 0.17530155
1.1634459 0.065839924 0.14862163
1.164551 0.066450745 0.12193677
1.1673038 0.067901611 0.095218539
1.1722167 0.070444971 0.06838575
1.1909413 0.0378705 0.33532909
1.1852977 0.036134034 0.30865848
1.1817995 0.034873191 0.28199092
1.180425 0.034243967 0.2553277
1.1773827 0.033334754 0.22865608
1.1753768 0.032663785 0.20198339
1.1746647 0.03254991 0.17531875
1.1750958 0.032831375 0.14867657
1.1755666 0.03322655 0.12210375
1.1774783 0.034017239 0.095665358
1.1810627 0.035363104 0.069588706
1.1945969 -0.00022227841 0.33532417
1.1895852 -0.00018530645 0.30864704
1.1876514 -8.8973939e-05 0.28198487
1.1903332 0.00059968483 0.25533
1.1831648 -0.0018862652 0.20198528
1.1826977 -0.0017744725 0.1753116
1.1846595 -0.00096415228 0.14865071
1.1830375 -0.001043538 0.12211799
1.1839528 -0.00094753824 0.095750056
1.1863734 -0.00072648004 0.06980446
1.1923654 -0.037983995 0.33532006
1.1874342 -0.036503766 0.30865026
1.1850612 -0.035792433 0.28198746
1.1857702 -0.035865154 0.25533122
1.184624 -0.038280997 0.20198372
1.1820309 -0.037824545 0.17530462
1.1818031 -0.036946293 0.1486406
1.1842998 -0.036450163 0.1219855
1.1856567 -0.036803693 0.095438115
1.1878656 -0.037573844 0.069006592
1.1822407 -0.075319558 0.36140954
1.178314 -0.072765224 0.33529797
1.1743294 -0.070786558 0.30863062
1.1735444 -0.070486985 0.2819899
1.1755083 -0.071500517 0.25533089
1.1767137 -0.073741674 0.17531592
1.1738539 -0.072124526 0.14864835
1.1742237 -0.071715705 0.12198948
1.1775455 -0.072971329 0.0953319
1.1819072 -0.075235151 0.068607971
1.1592376 -0.10549562 0.36081195
1.1566303 -0.10351046 0.33499154
1.15503 -0.10250647 0.30854359
1.1561985 -0.10298447 0.28199038
1.1554258 -0.10261463 0.25532651
1.161568 -0.10716885 0.17533223
1.158211 -0.10506461 0.14866312
1.1576318 -0.10491621 0.12199988
1.1600587 -0.10674886 0.095333301
1.1652017 -0.11036215 0.068666667
1.1331142 -0.13260494 0.36008435
1.1306837 -0.13034275 0.33440924
1.1300941 -0.12986551 0.30830553
1.131457 -0.13099581 0.28197902
1.1305933 -0.13030618 0.25532034
1.1328242 -0.13232005 0.17532918
1.1320987 -0.13194965 0.14866173
1.1326207 -0.13256185 0.12199353
1.136482 -0.13668102 0.095333293
1.1414213 -0.14142136 0.068666667
1.1033469 -0.15593606 0.35949332
1.1015654 -0.15365107 0.33415565
1.100973 -0.15286078 0.30814841
1.1019359 -0.15394166 0.28184488
1.1010357 -0.15267722 0.25526688
1.1042038 -0.15753892 0.17532738
1.1038854 -0.15700355 0.14865708
1.1036944 -0.15578233 0.12197699
1.105399 -0.15731744 0.095301628
1.1086023 -0.16187289 0.068666667
1.0723631 -0.1777346 0.36051053
1.0703356 -0.17417252 0.33452678
1.0692977 -0.17234178 0.3082526
1.0691304 -0.17179556 0.2818158
1.0685788 -0.17034744 0.25524724
1.0749544 -0.18194567 0.14866108
1.0723178 -0.17537136 0.12195404
1.0723065 -0.17411432 0.09522716
1.0738535 -0.1772484 0.06853269
1.0373468 -0.19165654 0.33516291
1.0356487 -0.18827055 0.3084991
1.0346135 -0.18540077 0.28189373
1.0341187 -0.18335113 0.25527227
1.039018 -0.19615707 0.14866666
1.0374584 -0.188192 0.12194666
1.0369768 -0.18525612 0.095115483
1.0375913 -0.18733013 0.068226293
1 -0.2 0.33533335
1 -0.2 0.30866668
0.99839252 -0.19300641 0.28196621
1.0000614 -0.19402373 0.17533216
1.0002527 -0.19399564 0.14866629
1.0002441 -0.1930785 0.12199988
1.0000088 -0.19006595 0.095040657
1.0001817 -0.19072223 0.067816615
0.96098197 -0.19615704 0.33533335
0.96098197 -0.19615707 0.30866668
0.96091056 -0.19176815 0.28199065
0.96169001 -0.18996163 0.17533423
0.96178472 -0.18986487 0.14866665
0.96177787 -0.19031125 0.12199043
0.96201658 -0.18896906 0.095127083
0.96236765 -0.18850045 0.067832619
0.92521048 -0.18199359 0.33512238
0.92418277 -0.18346599 0.30863479
0.92676193 -0.17616105 0.17534608
0.92723298 -0.17575853 0.14868641
0.92699945 -0.17646705 0.12199524
0.92600137 -0.17830586 0.095188454
0.92521739 -0.18033825 0.068137139
0.89285243 -0.16203152 0.30829394
0.88990152 -0.16488717 0.28197634
0.89540422 -0.15686472 0.17539115
0.89684623 -0.15571362 0.14879337
0.89694548 -0.15601419 0.12219944
0.8955822 -0.15782543 0.095545031
0.89266765 -0.16127461 0.068704724
0.86596102 -0.13604558 0.30775791
0.86808228 -0.13286377 0.17547107
0.87120253 -0.13075161 0.14899823
0.87216192 -0.13033479 0.12262944
0.8722235 -0.13103145 0.096768096
0.87131733 -0.13249871 0.071810365
0.84551138 -0.10686803 0.33256859
0.84286308 -0.10690763 0.3074761
0.83832538 -0.10847842 0.28174666
0.83617014 -0.10987705 0.20201956
0.84590924 -0.10455643 0.17555292
0.85099894 -0.10189293 0.14923187
0.85336053 -0.10092574 0.12326851
0.85521311 -0.10121252 0.098721266
0.85494804 -0.10201428 0.075754613
0.82368869 -0.075072587 0.30759376
0.82287973 -0.074308515 0.28182009
0.83158094 -0.071832292 0.17559557
0.83695149 -0.069980919 0.14937003
0.83987212 -0.069217697 0.12358182
0.84342575 -0.069843218 0.10002649
0.8447665 -0.071364157 0.07816492
0.81406385 -0.039100636 0.3076086
0.81816387 -0.03815677 0.28178835
0.82259822 -0.036995403 0.17555505
0.82862401 -0.036235731 0.14937307
0.83223855 -0.035960495 0.12365057
0.83640575 -0.036841821 0.10035366
0.82953399 -0.00347987 0.3496967
0.81762153 -0.0035394733 0.33154252
0.81713903 -0.0024910015 0.30734131
0.82498145 -0.0013846644 0.17569177
0.82671809 -0.001720858 0.14932805
0.83125019 -0.0022987647 0.12397897
0.83564293 -0.003354219 0.1009149
0.84280902 0.0291753 0.36461386
0.83422178 0.030242248 0.34913439
0.82139766 0.032356296 0.3318167
0.82277638 0.033594012 0.30757648
0.82741117 0.033065647 0.28191194
0.82941067 0.032997418 0.25569722
0.83349782 0.032246061 0.1759547
0.83394706 0.031782974 0.14962006
0.83667541 0.030858612 0.1243775
0.84036881 0.029719381 0.10133934
0.85301828 0.059171129 0.3646512
0.84614009 0.061872441 0.34897017
0.84046167 0.06397415 0.32962644
0.83877188 0.065694675 0.30677935
0.83746254 0.067437358 0.28233212
0.84325647 0.066101931 0.20255587
0.84508628 0.064868994 0.17611164
0.845873 0.063913524 0.14991258
0.84663111 0.063082553 0.12444323
0.84965229 0.061889734 0.10125498
0.87162948 0.084504455 0.3632988
0.86619699 0.088062949 0.34770024
0.86103195 0.091862775 0.32890579
0.85879087 0.094361134 0.30649406
0.8578527 0.095914736 0.28194374
0.85951537 0.096391112 0.17603484
0.86074376 0.094775081 0.14991857
0.8609252 0.093809977 0.12423303
0.86276501 0.092777543 0.10040849
0.89229059 0.10848705 0.36386716
0.8869701 0.11347591 0.34862483
0.88260394 0.11800783 0.32962006
0.88124543 0.12029713 0.30677167
0.88055634 0.12175126 0.2819441
0.87674528 0.12658608 0.17571288
0.87862939 0.12398249 0.14956385
0.87936413 0.12252927 0.12382427
0.87909043 0.12209692 0.098744467
0.91541278 0.13058184 0.36567199
0.90849668 0.13825662 0.35170692
0.90657407 0.14196911 0.33117983
0.90696269 0.14269161 0.30711767
0.90573633 0.14474203 0.28221136
0.89865524 0.15275136 0.17552185
0.90041834 0.15000479 0.14912686
0.90108293 0.14872551 0.12303261
0.9008767 0.14850657 0.097476088
0.94243562 0.14940578 0.36809802
0.937666 0.15628178 0.35289371
0.93593788 0.16003475 0.33180645
0.93559819 0.16155097 0.3075684
0.93361431 0.1646526 0.28246033
0.92589337 0.17336369 0.17540993
0.92651266 0.17162976 0.14886533
0.92661202 0.1712127 0.12245794
0.92629182 0.17148219 0.096360825
0.96870846 0.17232478 0.35532364
0.9676792 0.1748964 0.33295077
0.967004 0.17628464 0.3081761
0.96591258 0.17754741 0.28219873
0.96228856 0.17977665 0.17540401
0.96247786 0.18092585 0.14882888
0.96227866 0.18174444 0.12238356
0.96171576 0.18193024 0.096316867
0.85865313 0.057209458 0.37708002
0.87655699 0.081423573 0.37522268
0.89702672 0.10404386 0.37521428
0.857189 -0.00051183713 0.38852012
0.85958225 0.027866436 0.38920581
0.86356765 0.055640411 0.38545233
0.88482469 0.076440059 0.38663459
0.88096148 0.078745328 0.38303348
0.90442395 0.096874051 0.38590971
0.90106249 0.10016643 0.38255185
0.92656356 0.11515095 0.38675287
0.87861836 -0.081247367 0.32116738
0.87734967 -0.082938053 0.33805352
0.88094944 -0.080325685 0.35398772
0.868963 -0.055047046 0.35291183
0.86285877 -0.057947237 0.33791649
0.86005574 -0.05856045 0.32069492
1.1557862 -2.5407184e-05 0.32058573
1.1527737 -0.030426798 0.3205685
1 -0.15647191 0.30296856
1 -0.15647191 0.32058832
1 -0.15647191 0.33820808
0.97023392 -0.15105711 0.33818257
0.9697026 -0.15266189 0.32058883
0.9694739 -0.15346535 0.30296856
1.1445612 0.059879202 0.32058832
1.1527948 0.030379314 0.32059741
1.1106423 0.11064234 0.32058832
1.1301017 0.086931132 0.32058832
1.0595354 0.14366664 0.32063299
1.0597337 0.14425571 0.33822545
1.0868909 0.13002972 0.33821064
1.0868995 0.13005482 0.32059169
0.90920264 0.094285317 0.33877349
0.90943414 0.093128078 0.35266197
0.90987891 0.092114285 0.36488265
0.9098534 0.091839224 0.37458348
0.93047303 0.10870928 0.37514827
0.9299174 0.10931287 0.36559451
0.92803574 0.11173794 0.35395783
0.92746836 0.11377183 0.3396261
1.030233 0.15203768 0.33832431
1.030287 0.15165392 0.3207607
0.85257089 -0.029803166 0.32105103
0.85834396 -0.029034695 0.33734918
0.86303329 -0.027821619 0.35213566
0.86501873 0.00029769022 0.37536174
0.86456656 0.0001544852 0.36463696
0.86236554 -9.0224145e-05 0.35181034
0.85878903 -0.00028250142 0.33740348
0.85578191 -0.00021369975 0.32197678
0.94314224 -0.13934617 0.32073838
0.94396985 -0.13780145 0.33815056
0.91960418 -0.12138397 0.35519338
0.91929078 -0.1224527 0.33819818
0.91959 -0.12215322 0.32104862
1.1444679 -0.059838723 0.30296662
1.1445215 -0.059862386 0.32058799
1.130007 -0.086867921 0.32058832
0.86332464 0.027562413 0.38875961
1.1300412 -0.086890765 0.30296856
0.87186444 0.05300286 0.38856232
0.95099598 0.12712559 0.33961529
0.95177352 0.1249055 0.35411674
0.95302486 0.12305541 0.36635703
0.88803059 0.074573271 0.38618222
0.95354921 0.12268306 0.37651575
1.1106423 -0.11064234 0.30296856
1.1106325 -0.1106327 0.32058832
0.90702093 0.094331726 0.38553974
0.92862499 0.11179872 0.38620383
1.0868592 -0.12999366 0.32058832
1.0869018 -0.13005768 0.30296856
0.89062637 0.073144965 0.38181072
0.9089126 0.092586905 0.3815701
0.92999816 0.1095852 0.38216114
0.86528432 0.027190477 0.33729568
0.86679357 0.027091106 0.35163373
0.86777186 0.027054656 0.36470103
0.86760366 0.027120991 0.3757605
0.89721334 -0.10381038 0.33815953
0.89792871 -0.10291239 0.35476953
1.0305262 -0.15346535 0.30296856
1.0305262 -0.15346535 0.32058832
0.89220965 0.073818251 0.33815709
0.89259672 0.072948717 0.35189617
0.89274234 0.072390206 0.36420029
0.89214563 0.07243304 0.37436333
0.87716162 0.051236887 0.37525123
0.87784123 0.051134389 0.36446512
0.87734711 0.051581856 0.35176429
0.87624937 0.052418638 0.33774585
1.0022726 0.14766622 0.32156628
1.0025402 0.14646134 0.33876455
0.97853309 0.13307482 0.3785497
0.97688121 0.13580924 0.35455942
0.97627825 0.13766973 0.33925104
