# .PCD v0.7 - Point Cloud Data file format
VERSION 0.7
FIELDS x y z
SIZE 4 4 4
TYPE F F F
COUNT 1 1 1
WIDTH 489
HEIGHT 1
VIEWPOINT 0 0 0 1 0 0 0
POINTS 489
DATA ascii
1 -0.80000001 0.068666652
1 -0.80000001 0.095333315
0.99978852 -0.80599332 0.12200178
0.99888593 -0.81268072 0.14867084
0.99796689 -0.81770605 0.17533794
0.99735743 -0.82081699 0.20199938
0.99740666 -0.8214274 0.25528827
0.9979586 -0.81899834 0.28190568
0.99840707 -0.81767887 0.30819046
0.99883461 -0.81704319 0.33369678
0.99963039 -0.81534636 0.35835811
1.0008086 -0.81174004 0.3822732
1.0344048 -0.82606751 0.37627807
1.0337529 -0.82679278 0.35505503
1.0334244 -0.82715857 0.33177954
1.0332574 -0.82697856 0.30714157
1.0331167 -0.82647258 0.2815505
1.032756 -0.82750779 0.25517043
1.0334233 -0.82424629 0.2019906
1.0346457 -0.81982684 0.17533806
1.0365597 -0.81312096 0.1486709
1.0390091 -0.80387992 0.12200001
1.039018 -0.80384296 0.09533333
1.066676 -0.8409794 0.37347639
1.066787 -0.84059113 0.35321817
1.0672262 -0.83969837 0.33080328
1.0675288 -0.83855689 0.30669641
1.0676551 -0.83714527 0.28141379
1.0674815 -0.83690649 0.25514749
1.0688252 -0.83250368 0.2020029
1.0706886 -0.82780373 0.17534599
1.0736806 -0.82075417 0.14866887
1.0765367 -0.81522411 0.122
1.0765367 -0.81522411 0.09533333
1.0968055 -0.85857224 0.37225991
1.0985651 -0.85671735 0.35284805
1.1003237 -0.85430866 0.33098
1.1013587 -0.85204828 0.30708432
1.1015944 -0.85025287 0.28166541
1.1011554 -0.85027701 0.25524846
1.1049901 -0.84234756 0.17534006
1.1078252 -0.83834743 0.14866991
1.111114 -0.83370608 0.122
1.111114 -0.83370608 0.09533333
1.1256176 -0.87823665 0.37343991
1.1292497 -0.87516046 0.35424131
1.1328523 -0.87109542 0.33235526
1.1349826 -0.86715883 0.30846941
1.1331806 -0.86826527 0.25535688
1.1361663 -0.86422467 0.17534292
1.1392733 -0.86082786 0.14867029
1.1404866 -0.85927308 0.12207102
1.1350158 -0.86296576 0.096656814
1.1528447 -0.90076089 0.37706578
1.1586678 -0.89647764 0.35750598
1.1652452 -0.88998598 0.33503509
1.1636231 -0.89138103 0.30867264
1.1615294 -0.89335799 0.28202906
1.1607071 -0.89401007 0.25536358
1.161716 -0.89271069 0.20201693
1.164071 -0.89060324 0.17534192
1.166033 -0.88903427 0.14867434
1.1596414 -0.89193314 0.12263665
1.1552018 -0.89443576 0.097383
1.1846572 -0.92351627 0.36197078
1.1847759 -0.92346334 0.33533335
1.1847759 -0.92346334 0.30866668
1.1847759 -0.92346334 0.28200001
1.1847759 -0.92346334 0.25533333
1.1847759 -0.92346334 0.20199999
1.1847759 -0.92346334 0.17533332
1.179424 -0.92493105 0.14886054
1.174407 -0.92657298 0.12284114
1.1713253 -0.92787915 0.097464979
1.1961571 -0.96098191 0.36199999
1.1961571 -0.96098191 0.33533335
1.1961571 -0.96098191 0.30866668
1.1961571 -0.96098191 0.28200001
1.1961571 -0.96098191 0.25533333
1.1961571 -0.96098191 0.22866666
1.1961571 -0.96098191 0.20199999
1.1937734 -0.96127528 0.17533088
1.189797 -0.96172601 0.14880376
1.1852878 -0.96251863 0.12267824
1.182605 -0.96323949 0.097097099
1.2 -1 0.36199999
1.2 -1 0.33533335
1.2 -1 0.30866668
1.2 -1 0.28200001
1.1959713 -0.9998197 0.25533289
1.1942908 -0.99974877 0.20199618
1.1938059 -0.99983138 0.17532277
1.1939249 -0.99980491 0.14863932
1.1909904 -0.99983031 0.1222551
1.1885455 -0.99995291 0.096184783
1.1961571 -1.039018 0.36199999
1.1961571 -1.039018 0.33533335
1.1931654 -1.038331 0.30866665
1.191041 -1.0378854 0.28199986
1.1897988 -1.0378717 0.25533283
1.1906681 -1.0382813 0.20199645
1.1915698 -1.0383888 0.17532414
1.192687 -1.0384558 0.14864123
1.1912373 -1.0380249 0.12190144
1.1889615 -1.0370778 0.095006265
1.1757568 -1.0722426 0.3822068
1.1847223 -1.0765113 0.36199072
1.1808909 -1.0748532 0.33533335
1.1786638 -1.0740858 0.30866665
1.1784279 -1.0742166 0.28199992
1.1802374 -1.0751282 0.25533319
1.1842606 -1.0763466 0.22866662
1.1847759 -1.0765367 0.20199999
1.1831841 -1.0758321 0.17532712
1.1777586 -1.0732052 0.14859268
1.1759956 -1.0723027 0.12180403
1.1766295 -1.0726157 0.094906829
1.1782776 -1.0734993 0.067732215
1.1587687 -1.1062915 0.38331968
1.1644359 -1.1099141 0.36199361
1.1608047 -1.1077189 0.33533335
1.1599809 -1.1074646 0.30866665
1.1619886 -1.1088722 0.28200001
1.166294 -1.111114 0.25533333
1.1636678 -1.1091928 0.22866666
1.162477 -1.1082863 0.20199999
1.1599659 -1.1066566 0.17530593
1.1572738 -1.1050771 0.14857309
1.1562206 -1.1042329 0.12178911
1.1575373 -1.1047628 0.094925046
1.15964 -1.1064663 0.067868441
1.1400888 -1.1401929 0.38779756
1.1378553 -1.138105 0.36199999
1.1357231 -1.1363952 0.33533335
1.1365241 -1.137292 0.30866668
1.1414213 -1.1414213 0.28200001
1.1404487 -1.1404531 0.25533333
1.137571 -1.1379596 0.20199999
1.1359773 -1.1367879 0.17531176
1.1342291 -1.1353532 0.14859408
1.1324401 -1.1332655 0.12181684
1.1325552 -1.1327575 0.09498965
1.1345451 -1.1344659 0.067971841
1.111114 -1.166294 0.38866666
1.1077163 -1.1619539 0.36199999
1.1061028 -1.1600136 0.33533335
1.1071298 -1.1613593 0.30866668
1.111114 -1.166294 0.28200001
1.1085207 -1.1624527 0.25533292
1.1059812 -1.159443 0.20199554
1.1055067 -1.1591427 0.17531906
1.1049185 -1.15844 0.14863807
1.1041832 -1.1570812 0.12196534
1.1036351 -1.1558462 0.095364586
1.1040953 -1.1559494 0.069092393
1.0765367 -1.1847759 0.38866666
1.0741746 -1.1805749 0.36200017
1.0728546 -1.1779257 0.33533669
1.073554 -1.1788814 0.30867523
1.076512 -1.1847235 0.28200001
1.0746493 -1.1810828 0.25533301
1.0727321 -1.1782887 0.17532934
1.0724137 -1.1775168 0.14866695
1.0719335 -1.1754553 0.12203261
1.0715683 -1.1739713 0.095500186
1.0716543 -1.1741854 0.069331229
1.039018 -1.1961571 0.38866666
1.0388919 -1.1957802 0.36200014
1.03728 -1.1898297 0.33535039
1.0374275 -1.1877959 0.30871385
1.0384759 -1.1903059 0.28206107
1.0390134 -1.1961428 0.17533332
1.0390036 -1.1961052 0.14866666
1.038437 -1.1913718 0.12199585
1.0380379 -1.1885412 0.095276691
1.0381861 -1.1897264 0.068426132
1 -1.2 0.38866666
1 -1.2 0.36199999
0.99977702 -1.1944797 0.33537167
1.0004368 -1.1899641 0.30878437
1.0010201 -1.18964 0.28217432
1 -1.2 0.17533332
1 -1.2 0.14866666
1.0005952 -1.1949778 0.1220001
1.0005749 -1.1928227 0.095332995
1.0002702 -1.1946479 0.068665251
0.96098197 -1.1961571 0.38866666
0.96098197 -1.1961571 0.36199999
0.96136951 -1.1950762 0.33536434
0.96367067 -1.1862241 0.30885968
0.9644233 -1.1836697 0.28226042
0.96098197 -1.1961571 0.17533332
0.96184194 -1.1933848 0.14866698
0.96275991 -1.189797 0.12200036
0.96262699 -1.1896473 0.095333509
0.961725 -1.1927392 0.068666682
0.92346334 -1.1847759 0.36199999
0.92649001 -1.1793855 0.33545503
0.92863059 -1.1750582 0.30898541
0.92924148 -1.1724159 0.2823025
0.92346334 -1.1847759 0.17533332
0.92550224 -1.1807644 0.14866814
0.92621684 -1.17897 0.12200088
0.92548132 -1.1803217 0.095333636
0.92346334 -1.1847759 0.068666667
0.88924396 -1.1658213 0.36200249
0.89368379 -1.1599824 0.33541855
0.89609945 -1.1564006 0.30889121
0.89665711 -1.1547716 0.28236544
0.89066148 -1.1635649 0.1753498
0.89175451 -1.1621134 0.14867178
0.89179116 -1.16203 0.12200152
0.89044982 -1.1640273 0.095333591
0.88888592 -1.1662939 0.068666667
0.86741537 -1.134717 0.360008
0.86774176 -1.1328272 0.3348031
0.86803752 -1.1316823 0.30866367
0.86034214 -1.1394126 0.17533943
0.86048663 -1.1393836 0.14866841
0.86019766 -1.1397338 0.12200027
0.85898077 -1.1410209 0.09533333
0.85857868 -1.1414213 0.068666667
0.84140259 -1.1055117 0.33487442
0.84158301 -1.1048819 0.30863118
0.83379066 -1.1110523 0.17533338
0.83370608 -1.111114 0.14866666
0.83370608 -1.111114 0.122
0.83370608 -1.111114 0.09533333
0.83370608 -1.111114 0.068666667
0.81651545 -1.0759205 0.33533812
0.81796438 -1.0751678 0.30867797
0.81522411 -1.0765367 0.17533332
0.81522411 -1.0765367 0.14866666
0.81522411 -1.0765367 0.122
0.81522411 -1.0765367 0.09533333
0.81522411 -1.0765367 0.068666667
0.80869287 -1.03783 0.30867577
0.80384296 -1.039018 0.17533332
0.80384296 -1.039018 0.14866666
0.80384296 -1.039018 0.122
0.80384296 -1.039018 0.09533333
0.80384296 -1.039018 0.068666667
0.80380094 -0.99969304 0.3353368
0.80196053 -0.99980867 0.30866939
0.80000001 -1 0.17533332
0.80000001 -1 0.14866666
0.80000001 -1 0.122
0.80000001 -1 0.09533333
0.80000001 -1 0.068666667
0.80881768 -0.9618668 0.33533773
0.80870366 -0.96191931 0.30868146
0.80783135 -0.96179777 0.28204826
0.80384296 -0.96098191 0.17533332
0.80384296 -0.96098191 0.14866666
0.80458593 -0.96119094 0.12199889
0.8051548 -0.96133125 0.095324315
0.80486023 -0.96121049 0.068629265
0.82018226 -0.9251141 0.33533096
0.81908047 -0.92473292 0.30867362
0.8166678 -0.92394638 0.28201348
0.81747729 -0.9248544 0.14866562
0.81878632 -0.92564833 0.1219916
0.81878132 -0.92552388 0.095292449
0.81805414 -0.92495847 0.06847091
0.83413446 -0.88920581 0.3619743
0.83370602 -0.88888597 0.33533335
0.83370602 -0.88888597 0.30866668
0.83370602 -0.88888597 0.28200001
0.83523875 -0.89043778 0.17533359
0.83814895 -0.8933661 0.14866513
0.83915085 -0.89407265 0.1219866
0.83881515 -0.89343828 0.095265441
0.8376646 -0.89213026 0.068352327
0.86213517 -0.86357313 0.36120719
0.86144376 -0.86275166 0.33525863
0.86012083 -0.86090457 0.30866727
0.8586334 -0.85866207 0.28200015
0.86204475 -0.8643353 0.17533532
0.86397856 -0.86675942 0.1486674
0.86447787 -0.8668099 0.12199287
0.86393905 -0.86542237 0.095286407
0.86236537 -0.86297286 0.068456024
0.89747268 -0.84910554 0.38005304
0.89552015 -0.84645748 0.35915115
0.8938213 -0.84410083 0.33487427
0.89290768 -0.84332818 0.30863529
0.89209241 -0.84235495 0.28201634
0.89148843 -0.8409524 0.25535908
0.89293176 -0.84453082 0.17533973
0.89372534 -0.84521246 0.14867012
0.89374644 -0.84397602 0.12200146
0.89288443 -0.84122491 0.095332466
0.8910827 -0.83735526 0.068663999
0.93105 -0.83306611 0.37933958
0.92940044 -0.83049083 0.35878652
0.92782009 -0.8285501 0.33483618
0.9270485 -0.82877773 0.30864164
0.9264943 -0.82903117 0.28202999
0.92593831 -0.82816941 0.25538197
0.92575538 -0.82928717 0.20201741
0.92628556 -0.83000249 0.1753421
0.92662269 -0.82887745 0.14867125
0.92645836 -0.82597274 0.12200222
0.92554206 -0.82156473 0.095334128
0.9237259 -0.81593782 0.068666711
0.96515566 -0.81714344 0.38196492
0.96396261 -0.8154164 0.36000746
0.96291167 -0.81493264 0.33510596
0.96240133 -0.81726271 0.3086729
0.9618957 -0.81929231 0.2820425
0.96145946 -0.82024205 0.25539288
0.96120417 -0.82226723 0.20201313
0.96153742 -0.82096624 0.17534104
0.96191883 -0.81791347 0.14867127
0.96203279 -0.81318986 0.12200223
0.96155304 -0.80744207 0.095333889
0.96098197 -0.8038429 0.068666667
1.034835 -0.828821 0.39282972
1.0011641 -0.81924015 0.39750403
1.067075 -0.84165871 0.39077273
1.0949268 -0.86057943 0.38830248
1.1215802 -0.88127255 0.38866067
0.90079254 -0.85364908 0.39548904
0.93328744 -0.83780324 0.39470664
0.96637541 -0.82168782 0.39836293
1.000899 -0.83013898 0.40534341
1.0004634 -0.84047276 0.40813336
1.0314652 -0.84466124 0.40548688
1.0332253 -0.83683723 0.40184391
1.0610843 -0.85423917 0.4045268
1.0646987 -0.84712481 0.40095174
1.0884646 -0.86827922 0.40639353
1.092279 -0.86374784 0.39988351
1.1119244 -0.88866693 0.40423262
1.1166778 -0.88495362 0.39885414
1.1321939 -0.91213697 0.40519837
1.1393402 -0.90823114 0.40131611
1.1479697 -0.93892521 0.40718275
1.1577865 -0.96854985 0.40945613
1.1583503 -1.0000174 0.40971148
1.0598792 -1.1445612 0.41
1.1557399 -1.0306518 0.40705764
1.0867612 -1.1298468 0.4090983
1.1223749 -1.1227567 0.40770769
1.0873265 -1.1306834 0.41002876
1.0982397 -1.1470264 0.41000026
1.0598792 -1.1445612 0.41
1.0676706 -1.1633713 0.41
1.1483331 -1.0288019 0.40016341
1.0344982 -1.173434 0.41
1.1551158 -0.99980164 0.40674493
1.1498256 -0.97025692 0.4022761
0.96550184 -1.173434 0.41
1.1394269 -0.9422549 0.39943796
1.1254879 -0.91591835 0.39894921
0.90175748 -1.1470302 0.41
1.1070373 -0.89303422 0.39863941
1.0848848 -0.87395179 0.40055406
1.057956 -0.86171067 0.397506
1.0297005 -0.85282308 0.39828014
1.000417 -0.84825146 0.40133816
0.87848228 -0.87973064 0.40633124
0.9120397 -0.86870617 0.40658081
0.90662342 -0.86139017 0.40354294
0.93967986 -0.8541559 0.40615392
0.9365918 -0.84615761 0.40295616
0.96931928 -0.84471256 0.40742141
0.96792293 -0.83364892 0.40506184
1.156472 -1 0.30296856
1.156472 -1 0.32058832
1.156472 -1 0.33820808
1.156472 -1 0.35582787
1.156472 -1 0.37344763
1.1559042 -0.9999184 0.39097899
1.1484256 -1.0288347 0.38826117
1.1499583 -1.0293932 0.37300622
1.1534468 -1.0305215 0.35583085
1.1534654 -1.0305262 0.33820808
1.1534654 -1.0305262 0.32058832
1.0003781 -0.84596878 0.40716109
1.1534654 -1.0305262 0.30296856
1.0303019 -0.84998071 0.4043943
1.0589876 -0.85901695 0.40346169
1.1445612 -0.94012082 0.30296856
1.0859433 -0.87201405 0.40594047
1.1445612 -0.94012082 0.32058832
1.1445612 -0.94012082 0.33820808
1.1442943 -0.94023067 0.35591584
1.1413578 -0.94149202 0.37349492
1.1395552 -0.94220084 0.3884533
1.1504898 -0.97015268 0.39011919
1.1085949 -0.89157671 0.40427315
1.1525869 -0.96967053 0.37362856
1.1534654 -0.96947384 0.35582787
1.1534654 -0.96947384 0.33820808
1.1534654 -0.96947384 0.32058832
1.1534654 -0.96947384 0.30296856
1.127461 -0.91483963 0.40446055
1.1418632 -0.94129109 0.40537113
1.1079819 -0.89291054 0.32065615
1.1073499 -0.89385319 0.33808523
1.1068466 -0.89442909 0.35521507
1.1060888 -0.89469963 0.37171307
1.1062095 -0.89405704 0.38665766
1.1516711 -0.96982634 0.40775788
1.1256545 -0.91570008 0.38804185
1.1271024 -0.91485149 0.37315685
1.1298803 -0.91324639 0.35581338
1.1301017 -0.91306889 0.33820808
1.1300946 -0.91307431 0.32058835
1.1555533 -0.99987394 0.4093886
1.150447 -1.0294237 0.40565956
1.0555621 -0.86656356 0.32127649
1.0557109 -0.86655343 0.33815795
1.0560122 -0.86593765 0.35496411
1.0565892 -0.86464763 0.3712486
1.0574962 -0.86291599 0.38624823
1.083491 -0.87613291 0.38669264
1.0825242 -0.87783229 0.3712855
1.0822772 -0.87857145 0.35494208
1.0822443 -0.8787179 0.33806145
0.88945091 -0.88946933 0.30298138
0.88987541 -0.88997263 0.32062232
0.89027661 -0.89042568 0.33824092
0.89069712 -0.89092994 0.35599881
0.89156133 -0.89208806 0.37371561
1.0867678 -1.1298659 0.41001803
0.89199573 -0.89264482 0.38988936
0.91660827 -0.87600935 0.38840011
0.91654605 -0.87601888 0.37343019
0.91617775 -0.87554103 0.35657728
0.91567087 -0.87482548 0.3386482
1.0598792 -1.1445612 0.41
0.91546559 -0.87474072 0.32104611
1.0294493 -0.85373735 0.38721204
1.0290775 -0.8544277 0.37211508
1.028561 -0.85592592 0.35538727
1.0282388 -0.85680646 0.33831513
1.0280795 -0.85684109 0.32129112
1.1444501 -1.0598335 0.30296856
1.1445612 -1.0598792 0.32058832
1.1445612 -1.0598792 0.33820808
1.1440076 -1.0596265 0.35592508
1.1400024 -1.0577236 0.37277752
1.1381375 -1.0568129 0.38711151
1.1245619 -1.0833672 0.38762075
1.1265327 -1.0845721 0.37318709
1.1298105 -1.0867352 0.35592869
1.1301017 -1.0869311 0.33820808
1.1299183 -1.0868088 0.32058832
1.1300784 -1.0869156 0.30296856
0.9423002 -0.86200356 0.32126272
0.94239759 -0.86178613 0.33882579
0.94281465 -0.86231071 0.35671794
0.94307226 -0.86257827 0.37341911
0.94306135 -0.86238223 0.3881644
1.1106423 -1.1106423 0.30296856
1.1105789 -1.1105798 0.32058832
1.110545 -1.1105453 0.33820808
1.1106415 -1.1106415 0.35582823
1.1092882 -1.109358 0.37380749
1.1080372 -1.1083121 0.38997287
0.91490573 -0.87304473 0.40544957
1.0868878 -1.1300347 0.39109945
1.0869311 -1.1301017 0.3734476
1.0869311 -1.1301017 0.35582787
1.0868198 -1.1299369 0.33820808
1.0869199 -1.130085 0.32058832
0.94162929 -0.858926 0.40512335
0.97032976 -0.84934205 0.40647024
0.91624606 -0.87530571 0.39961401
0.94270694 -0.86148185 0.39925647
0.97087467 -0.85124987 0.40154815
1.0305262 -1.1534654 0.33820808
1.0305262 -1.1534654 0.37344763
1.0598296 -1.1444422 0.32058832
1.0598449 -1.1444799 0.33820808
1.0598792 -1.1445612 0.35582787
1.0598792 -1.1445612 0.37344763
0.99975652 -0.850007 0.32102379
0.99981344 -0.85016561 0.33842915
1.0000229 -0.84898913 0.35604119
1.0002729 -0.8474189 0.37381721
1.0004101 -0.84833896 0.38973391
0.97102368 -0.85179543 0.38915431
0.97093093 -0.85179633 0.37360358
0.97056633 -0.85135657 0.35635054
0.97032893 -0.85123229 0.33840859
0.97037977 -0.85181856 0.32104915
