# .PCD v0.7 - Point Cloud Data file format
VERSION 0.7
FIELDS x y z
SIZE 4 4 4
TYPE F F F
COUNT 1 1 1
WIDTH 452
HEIGHT 1
VIEWPOINT 0 0 0 1 0 0 0
POINTS 452
DATA ascii
0.79138815 0.93282485 0.071218304
0.7910502 1.002437 0.071573228
0.88551658 0.86279291 0.070847355
0.88404787 1.141221 0.072211981
0.97740471 1.2104589 0.072629564
1.1668726 0.93141109 0.071717784
1.1665292 1.001089 0.072050229
1.1661413 1.0707281 0.072391868
1.0006422 1.188864 0.067916036
1.0012745 1.1848032 0.095133319
1.0019044 1.1829288 0.12202957
1.0023469 1.1832585 0.14874706
1.0024232 1.1853318 0.17537642
1.0019876 1.1869718 0.20203537
1.0011588 1.1900891 0.25536314
1.0009546 1.1915187 0.28201565
1.0008214 1.1923418 0.30867267
1.0016912 1.1891756 0.33369201
1.003106 1.1816348 0.35511482
1.0041279 1.1760772 0.3741197
1.03927 1.1751473 0.37599355
1.0392038 1.1795621 0.35570198
1.038973 1.1862957 0.33314955
1.039018 1.1961567 0.30866665
1.0390165 1.1961401 0.28200012
1.0389054 1.1940678 0.25534207
1.0389329 1.1912032 0.22867537
1.0390842 1.1892666 0.20200196
1.0386198 1.1844962 0.17535529
1.0382454 1.1820884 0.14871582
1.0381943 1.182398 0.12204857
1.0383695 1.185382 0.095318556
1.0384372 1.18924 0.068413153
1.0727721 1.1653683 0.37664747
1.0741556 1.1706983 0.3565096
1.0753605 1.1775711 0.33371598
1.0765367 1.1847759 0.30866668
1.0765367 1.1847759 0.28200001
1.0765367 1.1847759 0.25533333
1.0765367 1.1847759 0.22866666
1.0745884 1.1796466 0.20199272
1.0728344 1.1752105 0.17534733
1.0719612 1.1728776 0.14872253
1.0722193 1.1734209 0.12209176
1.0741639 1.1779971 0.095406115
1.0763087 1.1841079 0.068675727
1.1033155 1.1487069 0.37688005
1.1065273 1.1552169 0.35729221
1.1101768 1.1638966 0.33489227
1.111114 1.1662939 0.30866668
1.111114 1.1662939 0.28200001
1.111114 1.1662939 0.25533333
1.111114 1.1662939 0.22866666
1.1069071 1.161636 0.20198551
1.1036559 1.1574522 0.17535809
1.1021692 1.1554621 0.14878008
1.1022835 1.1556581 0.1222351
1.1041348 1.1583122 0.095668174
1.106189 1.1613357 0.068966284
1.1356398 1.1336526 0.3585245
1.1410521 1.1410598 0.33533305
1.1414213 1.1414213 0.30866668
1.1414213 1.1414213 0.28200001
1.1414213 1.1414213 0.25533333
1.1414213 1.1414213 0.22866666
1.1354266 1.1371814 0.20198442
1.1309439 1.1338747 0.17538114
1.1287203 1.1320324 0.14887324
1.1282908 1.1315331 0.12247326
1.1291716 1.1324941 0.096187405
1.1571437 1.1043586 0.35858911
1.161518 1.1083111 0.33509147
1.1633471 1.1093299 0.30863655
1.1662924 1.111113 0.28200001
1.1662939 1.111114 0.25533333
1.1662939 1.111114 0.22866666
1.1587094 1.1077083 0.20198974
1.1535071 1.1051993 0.1754052
1.150721 1.1035427 0.14896792
1.1489947 1.1024768 0.12277996
1.1484985 1.1024605 0.09701784
1.1487821 1.103029 0.071988955
1.1649141 1.0657523 0.37561837
1.1707551 1.0696273 0.3572008
1.1761134 1.0730337 0.33474806
1.1780834 1.0738794 0.30846882
1.1830657 1.0758399 0.28198627
1.1847759 1.0765367 0.25533333
1.1844573 1.0764661 0.22866622
1.1755325 1.0743693 0.20199415
1.1702394 1.0727587 0.17540744
1.1666992 1.0712104 0.14901224
1.1635709 1.0700767 0.12300093
1.162065 1.0696433 0.09763997
1.1617242 1.0695682 0.073437825
1.1750045 1.0316659 0.37551111
1.1797817 1.0338576 0.35646152
1.1854134 1.036345 0.33475748
1.1860943 1.0367694 0.30841151
1.1895819 1.0377603 0.28191587
1.1956609 1.0389234 0.25533062
1.1903591 1.0388572 0.22865514
1.1845108 1.0384293 0.20199071
1.179317 1.0372983 0.17540917
1.1756691 1.0363257 0.14900999
1.1720524 1.0356594 0.12301242
1.1701941 1.0352176 0.097731374
1.1698173 1.0348319 0.073770404
1.1815284 0.99670291 0.37760755
1.1834326 0.99748939 0.35669088
1.1856053 0.99857318 0.33347312
1.1873273 0.9992072 0.30819121
1.1897559 0.99970859 0.2819162
1.1916838 1.0003967 0.25530463
1.1864883 1.0011176 0.20197898
1.1811554 1.0005759 0.17539951
1.177838 1.0002913 0.14894803
1.1747339 1.0003275 0.1227941
1.1729795 1.0001135 0.097398438
1.1857493 0.9611755 0.38260686
1.1842624 0.96098077 0.35870048
1.1830077 0.96155113 0.3337875
1.1826739 0.96215314 0.30805242
1.1831764 0.96272641 0.28179479
1.1844839 0.96305466 0.25529554
1.1802421 0.96385109 0.2019705
1.1760833 0.96419829 0.17537045
1.1736264 0.96447736 0.14884871
1.1718649 0.96502429 0.12247669
1.170246 0.96517849 0.096977748
1.1691365 0.96503693 0.073502094
1.1821685 0.92406839 0.36135709
1.1772447 0.92489713 0.33473834
1.1745437 0.9259885 0.30833465
1.1733991 0.92688274 0.28187484
1.1724439 0.9277159 0.25530472
1.1713973 0.92804587 0.22865523
1.1675552 0.92908663 0.20200054
1.1645128 0.92981493 0.17538686
1.1631852 0.93020475 0.14881334
1.1634736 0.93050951 0.12226111
1.1622114 0.93119287 0.096602552
1.1610742 0.93171477 0.073030919
1.166294 0.88888597 0.33533335
1.1624366 0.89108211 0.30864549
1.1593571 0.89300448 0.28202718
1.1562073 0.89489073 0.25537986
1.1527151 0.8964023 0.22872265
1.1489056 0.89797044 0.20207414
1.1469538 0.89856297 0.17545328
1.1467972 0.89855516 0.14886993
1.1482421 0.89832097 0.12233244
1.1495026 0.89866489 0.096168295
1.1483109 0.90009421 0.072306469
1.1406362 0.85950047 0.335361
1.1380179 0.86275768 0.3088333
1.1373321 0.86359584 0.28221631
1.1321157 0.86711204 0.25548169
1.1277654 0.86973459 0.2287935
1.1250591 0.87105131 0.20213744
1.1238765 0.87157875 0.17552061
1.1245526 0.87103993 0.14896411
1.1268803 0.86991614 0.12252625
1.1308609 0.86823469 0.096295215
1.1090505 0.8368938 0.3354367
1.1071242 0.83981776 0.30889729
1.1056058 0.84164256 0.28223842
1.1017027 0.84548342 0.25555363
1.0965719 0.84906799 0.17553896
1.097885 0.8478564 0.14899588
1.0997738 0.84717566 0.12269877
1.1003792 0.84927952 0.097211853
1.0757711 0.81682837 0.33537775
1.074037 0.82009369 0.30884111
1.0714824 0.82459563 0.28225461
1.0683835 0.82958758 0.25572899
1.0656 0.83186078 0.1755141
1.0663505 0.83238292 0.14900984
1.0674134 0.83270401 0.1227748
1.0674642 0.83520114 0.097618476
1.039018 0.8038429 0.33533335
1.039005 0.80388659 0.30866814
1.0363895 0.81075853 0.28206304
1.032282 0.82030559 0.22875953
1.0317994 0.82215017 0.17549099
1.0324482 0.82241571 0.14894184
1.0331362 0.82269156 0.12264155
1.0332291 0.82458419 0.097365096
1 0.80000001 0.33533335
1 0.80000001 0.30866668
0.99888575 0.806059 0.28202775
0.99671084 0.81756556 0.1754435
0.99736714 0.81699741 0.1488373
0.99787915 0.81644851 0.12238532
0.99809366 0.81657732 0.096469536
0.96155405 0.80564022 0.33532441
0.96098197 0.8038429 0.30866668
0.96107006 0.80872428 0.28203121
0.96094769 0.81900364 0.17538825
0.96145546 0.81697524 0.14874417
0.96171278 0.81456202 0.12211879
0.96177888 0.81298882 0.09563873
0.92591131 0.81972015 0.33527076
0.92473215 0.81765449 0.30865699
0.92401892 0.81761277 0.28200942
0.9260084 0.82806557 0.17535433
0.9256689 0.82523954 0.1486824
0.92483777 0.82046854 0.12200906
0.92415726 0.81694722 0.095332228
0.89291316 0.83850348 0.33514172
0.89308816 0.83904022 0.30861101
0.89210165 0.83891863 0.28203735
0.8928932 0.84307462 0.1753431
0.89236295 0.84132129 0.14867374
0.89120418 0.83828354 0.12200324
0.89050996 0.83621597 0.09532433
0.86356091 0.86208212 0.33489758
0.86393011 0.86311227 0.3085615
0.86234564 0.86277092 0.28205812
0.86250788 0.86401039 0.17533679
0.86192054 0.86297262 0.14866902
0.86076927 0.86123234 0.12200096
0.85969096 0.85972708 0.09531977
0.860888 0.86097395 0.068771496
0.84259707 0.89316159 0.33448941
0.83919036 0.89135587 0.30858982
0.83629596 0.89103729 0.17533407
0.83578986 0.89052528 0.1486671
0.83480078 0.88966095 0.12200011
0.83372748 0.88889837 0.09533333
0.83444887 0.88947511 0.068669677
0.82857549 0.92828429 0.35864335
0.82695252 0.92705369 0.33438489
0.82617676 0.92639875 0.30844179
0.81577677 0.92367452 0.17533337
0.81548977 0.92355359 0.14866666
0.81522411 0.92346328 0.122
0.81522411 0.92346328 0.09533333
0.81522411 0.92346328 0.068666667
0.81860989 0.96432567 0.35906866
0.81830162 0.96318769 0.33437151
0.81730276 0.96242809 0.30843669
0.80384296 0.96098191 0.17533332
0.80384296 0.96098191 0.14866666
0.80385345 0.96098417 0.122
0.80393034 0.96100068 0.095333233
0.80384296 0.96098191 0.068666667
0.80931163 1.0002332 0.36131752
0.81179309 0.9996379 0.33496737
0.81021333 0.99857223 0.30862206
0.80912918 0.99812096 0.28202337
0.80000001 1 0.17533332
0.80229831 0.99991524 0.14866497
0.80377877 0.99981391 0.12198603
0.80365241 0.9998371 0.095285587
0.80240589 0.99992543 0.0685343
0.80936611 1.0379522 0.3617126
0.81015402 1.0367897 0.3352707
0.81195354 1.0354553 0.30861911
0.81387597 1.0345058 0.2819697
0.80685979 1.0383221 0.17533082
0.81016928 1.0375655 0.1486485
0.81142962 1.0373288 0.12194183
0.81076193 1.0375268 0.095176242
0.8085382 1.0380408 0.068249613
0.82081294 1.0728157 0.33520156
0.82511616 1.0698341 0.30851158
0.8275097 1.0683265 0.28189653
0.8223936 1.0732874 0.17533422
0.82441235 1.0728244 0.14863658
0.82508296 1.0726956 0.12192734
0.82367283 1.0733404 0.095171653
0.82055902 1.0745496 0.068311349
0.83846021 1.1058414 0.3349286
0.84343183 1.1013836 0.30828011
0.84664559 1.0991988 0.2818757
0.84240353 1.1055617 0.17532444
0.84430116 1.1047378 0.14863923
0.84408265 1.1051297 0.12194825
0.84169805 1.1066909 0.09525007
0.83767313 1.1089774 0.068567544
0.87226307 1.1260352 0.37648308
0.86327481 1.1338946 0.36027992
0.86595166 1.1303413 0.33398652
0.86766338 1.1284835 0.30783957
0.86970556 1.1271722 0.28169397
0.8678754 1.1332057 0.17532308
0.86909616 1.1325097 0.14864773
0.8680461 1.1337047 0.12197214
0.864784 1.1364173 0.095303237
0.85891336 1.1411391 0.068662301
0.90281498 1.1439666 0.37360889
0.89649528 1.1508744 0.35699624
0.89655215 1.1508055 0.33281779
0.89682394 1.1507678 0.30741179
0.89657176 1.1517388 0.28145516
0.89574224 1.1538818 0.25515938
0.89520591 1.158152 0.20199652
0.89765263 1.1554809 0.17532602
0.89856768 1.1541076 0.14866869
0.89825404 1.1532075 0.12197898
0.89606994 1.1552919 0.095189467
0.89286852 1.1590894 0.068196505
0.9353236 1.1592461 0.372742
0.93172652 1.1646643 0.35502106
0.92952359 1.1680285 0.33254445
0.92904705 1.1691122 0.30745617
0.92829239 1.1709671 0.28159463
0.92718184 1.1739101 0.25530219
0.92789471 1.1737019 0.22870012
0.9297238 1.1716113 0.20203088
0.93100566 1.1703955 0.1753329
0.93159848 1.167985 0.14869866
0.9311434 1.1676135 0.1219594
0.92960852 1.1696939 0.095043086
0.92752141 1.1735201 0.067767888
0.96915221 1.1707765 0.37326193
0.96690422 1.1764662 0.35507205
0.96456659 1.1818715 0.33346024
0.9639684 1.1830742 0.30809879
0.96354502 1.1843255 0.28201661
0.96380478 1.1836318 0.255364
0.96453112 1.1823261 0.22871211
0.96545148 1.1810479 0.2020468
0.96610022 1.1804401 0.1753504
0.9663403 1.1778719 0.1487277
0.96590108 1.1774087 0.12197144
0.96487308 1.1793962 0.095003583
0.96357262 1.183342 0.067636281
1.1787993 0.99647963 0.39469731
1.0032865 1.1631192 0.39865243
1.0019218 1.1554538 0.40327108
1.0307238 1.1536945 0.40955222
1.0352021 1.1641449 0.40343925
1.0598793 1.1445613 0.40999991
1.065799 1.1536022 0.40373409
1.0881943 1.13096 0.4083519
1.0937997 1.1368508 0.40261167
1.1115957 1.110569 0.40538433
1.1297467 1.0855922 0.40272599
1.1438349 1.0580467 0.40176585
1.1508391 1.059939 0.3981061
1.1535852 1.0288881 0.40242338
1.1610745 1.0292914 0.39864868
1.1585908 0.99890971 0.40491045
1.1683418 0.99766576 0.40215519
1.1572189 0.96910208 0.40900362
1.1727308 0.96586692 0.40944925
1.1469927 0.94042039 0.40609252
1.1394154 0.94364887 0.39890653
1.1499841 0.97054982 0.4023174
1.1508393 0.99962127 0.3987689
1.1460595 1.0283614 0.3963775
1.1369106 1.056362 0.3957445
1.1241271 1.0831339 0.39736634
1.107473 1.1077949 0.40110105
1.0859739 1.1285927 0.40557122
1.0598792 1.1445611 0.40999967
1.0305536 1.1529723 0.40891024
1.0017605 1.1497617 0.39844424
0.8737101 0.91512966 0.33838958
0.86729831 0.94406497 0.35538456
1.1514066 0.99949247 0.32059336
1.1520314 0.99947768 0.33817124
1.1520374 0.99949539 0.35554552
1.1513834 0.99943405 0.37220192
1.1505947 0.99951506 0.38725251
1.1511471 0.97015816 0.39010644
1.1505525 0.97009182 0.37291592
1.1501342 0.96978295 0.35560822
1.1494336 0.96977293 0.3381148
1.1485115 0.96995926 0.32058626
1.0017051 1.1515701 0.40299094
1.0305505 1.1531646 0.40976173
1.0598792 1.1445611 0.41
1.0864239 1.129179 0.40919542
1.1415285 1.0585321 0.32058907
1.1407593 1.0581774 0.33821136
1.1407543 1.058193 0.35587358
1.1383319 1.0572933 0.37227008
1.1368024 1.0565461 0.38586175
1.1457875 1.0284423 0.38606346
1.108587 1.1084913 0.40588894
1.1471046 1.0288106 0.37217832
1.148931 1.0292994 0.35586369
1.1485206 1.0291902 0.33821097
1.1486019 1.0292852 0.32058948
1.1259067 1.0838336 0.4025557
1.1391774 1.0568746 0.40107867
1.1106423 1.1106423 0.32058832
1.1106355 1.1106347 0.33820808
1.1106347 1.1106337 0.35582787
1.1100039 1.1100316 0.37347454
1.1079608 1.1082034 0.38945937
1.1485736 1.0285796 0.40191942
1.1244624 1.0835139 0.38722283
1.1267267 1.0849625 0.37314364
1.1281784 1.0856848 0.35582951
1.1282322 1.0857127 0.33820832
1.1290106 1.0861989 0.32058832
1.1531923 0.99951941 0.40445822
1.1300225 1.0868744 0.30296856
1.1516438 0.97021502 0.40761569
1.0598792 1.1445612 0.30296856
1.0598792 1.1445612 0.32058832
1.0597568 1.1442302 0.33820534
1.0593852 1.1424845 0.35574239
1.0593128 1.141764 0.37325549
1.0594692 1.1425472 0.39109915
1.1415092 0.94269753 0.40453595
1.0857605 1.127913 0.39074039
1.0860597 1.1282979 0.37351012
1.0868373 1.1299272 0.35582882
1.0869311 1.1301017 0.33820808
1.0869311 1.1301017 0.32058832
0.8925553 1.1059403 0.33814573
0.89170146 1.1072998 0.35562769
0.9169389 1.1226991 0.35510713
0.9168973 1.1224622 0.33804148
1.0307021 1.1499579 0.38997811
1.030664 1.1492615 0.37267989
1.0305092 1.1503142 0.35558113
1.0304868 1.1529448 0.33820087
1.0305262 1.1534653 0.32058832
0.91806555 0.87693697 0.35616052
1.1412641 0.94135821 0.32061863
1.1434181 0.94047946 0.33818305
1.1445237 0.94013953 0.35583311
1.1412146 0.9422586 0.37275666
1.1238339 0.91884333 0.38562232
1.1299053 0.91322523 0.35585165
1.1300538 0.91310829 0.33820859
1.1285628 0.91440439 0.32062525
0.94297397 1.1363505 0.33811635
0.94393772 1.1351403 0.35499644
1.1082451 0.89220095 0.33826005
1.1102178 0.88983482 0.35583895
1.0843958 0.87500191 0.37254041
1.0859338 0.87141955 0.3558473
1.0842179 0.87405527 0.33828267
1.0304195 0.84692836 0.33821195
1.0581946 0.85889453 0.33825594
1.0595249 0.85620654 0.35583621
0.87032712 1.086529 0.33820587
0.8701337 1.0867255 0.35582268
0.85829842 1.0580429 0.32090878
1.0001281 1.1531941 0.32081473
1.0000755 1.1539654 0.33828029
1.0007232 1.1513807 0.35542583
1.0016946 1.149034 0.38620204
0.9717654 1.1453483 0.35520703
0.97085488 1.1469548 0.33837748
