# .PCD v0.7 - Point Cloud Data file format
VERSION 0.7
FIELDS x y z
SIZE 4 4 4
TYPE F F F
COUNT 1 1 1
WIDTH 439
HEIGHT 1
VIEWPOINT 0 0 0 1 0 0 0
POINTS 439
DATA ascii
-0.1440499 -1.150799 0.058189362
-0.0014814795 -0.78133237 0.12097427
0.0004243209 -0.77851838 0.14763474
-0.00013553386 -0.78024137 0.17477578
-0.0016738822 -0.78046894 0.20459883
-0.0026242221 -0.78288746 0.23168039
-0.002362075 -0.78586245 0.25793713
-0.0017000148 -0.78950441 0.28441828
-0.0010813863 -0.79376054 0.31043705
-0.00032624902 -0.79815328 0.33589101
0 -0.80000001 0.36199999
0 -0.80000001 0.38866666
0.039018065 -0.80384296 0.38866666
0.039018065 -0.80384296 0.36199999
0.039289594 -0.80314332 0.33598021
0.038932487 -0.80093515 0.30958033
0.037973709 -0.79793012 0.28304583
0.038725574 -0.79256618 0.2569432
0.039240573 -0.78831589 0.23029792
0.040963199 -0.78241014 0.20426798
0.041787509 -0.7848562 0.1759863
0.040657647 -0.78324497 0.14777084
0.041289192 -0.7819429 0.1207611
0.076536693 -0.81522411 0.38866666
0.076536693 -0.81522411 0.36199999
0.084017351 -0.79999793 0.23717026
0.082894303 -0.79946816 0.20553696
0.080673896 -0.7987383 0.17665428
0.081558026 -0.80068529 0.14786252
0.081530668 -0.8028487 0.1211883
0.12116735 -0.81735432 0.24023081
0.11804531 -0.82075405 0.2063176
0.11742461 -0.81880379 0.1757658
0.11628806 -0.82212925 0.14782518
0.15603039 -0.83741963 0.27198806
0.15501021 -0.83970296 0.24151577
0.15086266 -0.84458685 0.20848697
0.14759092 -0.84778816 0.17456044
0.14703675 -0.84926653 0.14780176
0.16629392 -0.88888597 0.36199999
0.17134242 -0.87588483 0.26557231
0.17288326 -0.87611896 0.23666942
0.17119141 -0.88506651 0.20294349
0.1847759 -0.92346334 0.38866666
0.1847759 -0.92346334 0.36199999
0.1847759 -0.92346334 0.33533335
0.18524997 -0.92352241 0.30902368
0.18720275 -0.92245018 0.28347552
0.19003431 -0.9212504 0.258867
0.1893556 -0.92172992 0.23289379
0.18563439 -0.92299485 0.20234066
0.19615705 -0.96098191 0.38866666
0.19615705 -0.96098191 0.36199999
0.19624195 -0.96100318 0.3353743
0.19845566 -0.96136779 0.30985102
0.20236067 -0.96169007 0.28545672
0.20760234 -0.96073174 0.26260164
0.20213421 -0.9601174 0.23045577
0.19963546 -0.96029437 0.20190997
0.19810647 -0.96030742 0.17540537
0.2 -1 0.38866666
0.20001519 -1.0000058 0.36200479
0.20261729 -1.0010135 0.33620536
0.20726159 -1.0027531 0.31148469
0.20730844 -1.002021 0.28615338
0.2043505 -1.0009236 0.2593601
0.20196228 -1.0005643 0.23081711
0.20093548 -1.0003642 0.20275325
0.20173462 -1.0002168 0.17551316
0.19615705 -1.039018 0.38866666
0.19615705 -1.039018 0.36199999
0.19416218 -1.0386066 0.33626357
0.19536026 -1.0390025 0.31069168
0.19654255 -1.0393014 0.28471142
0.19749837 -1.0398966 0.25811845
0.19915865 -1.0407704 0.23075835
0.19974534 -1.0403938 0.2027815
0.20122881 -1.0403844 0.1754708
0.20437856 -1.0406449 0.14840567
0.20653465 -1.0392219 0.12141076
0.18477592 -1.0765367 0.38866666
0.18294935 -1.0756941 0.36209655
0.18079272 -1.074746 0.33605564
0.18146126 -1.0749934 0.31006444
0.18390189 -1.0760792 0.28400901
0.18808071 -1.0783048 0.25772971
0.19543654 -1.081969 0.23140936
0.19670489 -1.0800461 0.2021569
0.19770163 -1.0801558 0.17520036
0.19613229 -1.0805143 0.14840989
0.1926475 -1.0802795 0.12184929
0.16629393 -1.111114 0.38866666
0.16448514 -1.1099421 0.36204597
0.16296408 -1.1089935 0.33562946
0.16369665 -1.1093217 0.30926731
0.16667388 -1.1111814 0.28326952
0.17124075 -1.114465 0.25734213
0.17381299 -1.1166667 0.23122498
0.17725109 -1.1183263 0.20492212
0.17762361 -1.118414 0.17637905
0.17653246 -1.117414 0.14837955
0.17436038 -1.1172348 0.1216466
0.14142136 -1.1414213 0.38866666
0.14143041 -1.1414366 0.36200416
0.14094351 -1.1411278 0.33532357
0.14040361 -1.1406322 0.30795544
0.14209037 -1.1421963 0.28187418
0.14656661 -1.1457636 0.25809541
0.1474009 -1.14712 0.2307746
0.14784576 -1.1485864 0.20321497
0.14784603 -1.1489933 0.17561217
0.15143974 -1.1504512 0.14852922
0.15088393 -1.1503332 0.12168708
0.11151165 -1.1669513 0.39207137
0.11215899 -1.1685973 0.36357582
0.11185279 -1.1678591 0.33570963
0.11154804 -1.1671548 0.30842882
0.10950422 -1.1630191 0.28021061
0.11235161 -1.1673219 0.25517806
0.11601426 -1.1705782 0.23029076
0.11732527 -1.1733221 0.20311308
0.11880505 -1.1754425 0.17563167
0.11962976 -1.177072 0.14853808
0.11871403 -1.178001 0.12175058
0.11751105 -1.1755232 0.095039897
0.079464763 -1.1927434 0.36805797
0.078335136 -1.1883687 0.33875006
0.077055268 -1.1865256 0.30870596
0.075972602 -1.1866257 0.27982485
0.077047795 -1.1855339 0.25572979
0.078950234 -1.1864809 0.2303118
0.079026185 -1.187163 0.20289113
0.080739185 -1.1901243 0.17546624
0.081677549 -1.1937943 0.14847583
0.082721606 -1.1955417 0.12157942
0.082733884 -1.1957318 0.094900154
0.041711401 -1.2044142 0.36847347
0.03887501 -1.1981204 0.33805948
0.037024271 -1.2037295 0.30554417
0.038602874 -1.205858 0.28607154
0.043147076 -1.2092749 0.26193315
0.039429348 -1.1998363 0.23001777
0.039171327 -1.1968943 0.20250259
0.039356556 -1.2030948 0.17552052
0.04096774 -1.2049149 0.14865834
0.040926363 -1.2039626 0.12183114
0.040839031 -1.2017292 0.095151499
-0.0022292968 -1.2046584 0.33023727
-0.0034416479 -1.2138547 0.30714041
-0.002592392 -1.2211401 0.29337135
-0.0010880908 -1.2261933 0.27550864
-0.0038194533 -1.2194132 0.23397034
-0.0028026279 -1.2114695 0.20083867
-0.001460215 -1.2122627 0.17461906
-0.0018788042 -1.2121601 0.14802854
0.00010525239 -1.2120246 0.12153702
-0.00080526929 -1.2062159 0.095057629
-1.7484556e-08 -1.2 0.068666667
-0.047999054 -1.2271161 0.28218105
-0.038537797 -1.217496 0.23453414
-0.038632348 -1.2085956 0.20267373
-0.040188532 -1.2076491 0.17469719
-0.04011333 -1.2106578 0.14778429
-0.042858165 -1.2099668 0.12141084
-0.042145621 -1.2071248 0.094807707
-0.040598419 -1.2007951 0.068459123
-0.088965997 -1.2066883 0.27648088
-0.08131963 -1.2008648 0.23218638
-0.078015797 -1.1918613 0.2011203
-0.076271817 -1.1878859 0.17579447
-0.07926666 -1.1940085 0.14842758
-0.080845743 -1.1953856 0.12141395
-0.081158556 -1.1950376 0.094804816
-0.080569223 -1.1924702 0.068263859
-0.11080765 -1.1657157 0.17551418
-0.11362547 -1.1706948 0.14872476
-0.11409996 -1.1728933 0.12176418
-0.11535688 -1.1736262 0.094895445
-0.11485542 -1.1726228 0.068305701
-0.14186168 -1.1419914 0.14871156
-0.14213377 -1.1423297 0.12206735
-0.14348707 -1.144343 0.095129788
-0.1429951 -1.1434493 0.068493679
-0.16746883 -1.1122887 0.1486665
-0.16652511 -1.1113453 0.122
-0.1662939 -1.111114 0.09533333
-0.1662939 -1.111114 0.068666667
-0.18533213 -1.0766578 0.14868024
-0.18488489 -1.0765605 0.12200265
-0.1847759 -1.0765367 0.09533333
-0.1847759 -1.0765367 0.068666667
-0.1847759 -1.0765367 0.041999981
-0.19822975 -1.0392811 0.14877921
-0.19643939 -1.039065 0.122011
-0.19615705 -1.039018 0.09533333
-0.19615705 -1.039018 0.068666667
-0.20591818 -0.99931955 0.14868066
-0.20109558 -0.99984211 0.12198089
-0.2004516 -0.99990398 0.095321856
-0.2 -1 0.068666667
-0.20604555 -0.95869082 0.17547676
-0.20279698 -0.95954525 0.14884612
-0.19993609 -0.95978355 0.12188198
-0.19883841 -0.96021324 0.095254384
-0.19615705 -0.96098191 0.068666667
-0.19883795 -0.91571516 0.20211005
-0.19991474 -0.91763502 0.17585738
-0.19186787 -0.92048472 0.14848997
-0.19058968 -0.92115301 0.12181524
-0.18553351 -0.92327648 0.09531226
-0.18477589 -0.92346328 0.068666667
-0.18421982 -0.87843287 0.23357876
-0.18369907 -0.87878621 0.20530516
-0.17955075 -0.8797701 0.17629416
-0.1769118 -0.88279617 0.14835906
-0.17303252 -0.88590842 0.12178668
-0.16629395 -0.88888597 0.09533333
-0.16629395 -0.88888597 0.068666667
-0.16094705 -0.84560192 0.26454231
-0.15498774 -0.84731096 0.23057701
-0.15471524 -0.84617704 0.20377606
-0.15434091 -0.84705222 0.17797059
-0.15249167 -0.8499893 0.14827652
-0.14289655 -0.85672599 0.1219286
-0.14142138 -0.85857868 0.09533333
-0.14142138 -0.85857868 0.068666667
-0.12572628 -0.81709933 0.29355001
-0.11742555 -0.82809937 0.25636685
-0.12072416 -0.82369417 0.22935204
-0.12237747 -0.81993461 0.20492604
-0.12270661 -0.81862366 0.17803299
-0.11989649 -0.82025725 0.14785521
-0.11574531 -0.82449514 0.12152421
-0.11319255 -0.82907808 0.095123969
-0.11111406 -0.83370608 0.068666667
-0.081840962 -0.80544722 0.31463587
-0.080180436 -0.80162096 0.28794748
-0.078419909 -0.8036902 0.25727552
-0.08103884 -0.80219376 0.23151028
-0.08591681 -0.79787284 0.2070621
-0.082523234 -0.79856288 0.17464311
-0.081316374 -0.79674053 0.14748326
-0.080280207 -0.79710102 0.12072518
-0.079010099 -0.80580622 0.094627455
-0.041327272 -0.79656303 0.31205699
-0.041724846 -0.79182357 0.28636199
-0.041454352 -0.78985506 0.25828436
-0.043165442 -0.78766501 0.2327728
-0.045681138 -0.78373367 0.20663902
-0.041297644 -0.78119636 0.17450078
-0.041559264 -0.78293371 0.14770642
-0.04174991 -0.78549075 0.12092024
-0.041055128 -0.79052448 0.09448351
0.076536693 -0.81522411 0.41
0.11111405 -0.83370608 0.41
0.067670614 -0.83662868 0.41
0.098242499 -0.85296971 0.41
0.12503898 -0.87496102 0.41
0.14456119 -0.94012082 0.41
0.16337131 -0.93232942 0.41
0.15346533 -0.96947384 0.41
0.15647191 -1 0.41
0.13010164 -1.0869311 0.41
0.14703029 -1.0982425 0.41
0.13010164 -1.0869311 0.41
0.15647191 -1 0.41
0.15346533 -0.96947384 0.41
0.14456119 -0.94012082 0.41
0.18631564 -0.92266423 0.27352458
0.20390753 -1.0031012 0.29429451
0.2035656 -1.0076511 0.30914718
0.19817171 -1.008894 0.32300967
0.19229269 -1.0092226 0.3368867
0.18568495 -1.0083199 0.35111377
0.19587398 -0.96090758 0.27676916
0.16718552 -1.003953 0.35990804
0.15647191 -1 0.37344763
0.15781407 -1.0323712 0.37478507
0.1749998 -1.0386943 0.36402631
0.18182442 -1.0407962 0.34986109
0.20362829 -1.000244 0.28235662
0.18141758 -1.0403125 0.33468181
0.18445815 -1.0404429 0.32020354
0.19072857 -1.0373966 0.2837964
0.18813817 -1.0401838 0.30629843
0.19009162 -1.0387847 0.29333618
-0.0067925886 -1.2208555 0.29518548
-0.0080177449 -1.2157265 0.30419257
-0.0068451031 -1.2113291 0.3127594
-0.0018070616 -1.205846 0.3259989
-0.040729668 -1.213811 0.30475411
-0.042823985 -1.2192653 0.29732564
0.18303023 -0.92552048 0.29038075
0.17100941 -0.93574864 0.30535316
0.16426247 -0.93971121 0.31786066
0.14460446 -0.94008118 0.35577524
0.14456119 -0.94012082 0.37344763
0.14456119 -0.94012082 0.39106739
0.15346535 -0.96947384 0.39106739
0.15346535 -0.96947384 0.3734476
-0.0032154098 -0.78996772 0.26618809
0.17127191 -0.97376353 0.34701174
0.1783966 -0.97216815 0.33400127
0.18235523 -0.97051835 0.31940803
0.18704027 -0.96785778 0.3053095
0.19182406 -0.96430147 0.29074863
-0.042872902 -0.79388809 0.26513121
0.14456119 -0.94012082 0.41
-0.076416992 -0.80988324 0.2689001
0.15346533 -0.96947384 0.41
0.13010164 -0.91306889 0.39106739
0.13010164 -0.91306889 0.3734476
-0.12915401 -0.8226195 0.27970457
0.15647191 -1 0.41
0.13010164 -1.0869311 0.41
0.043805253 -0.80714715 0.28424442
-0.081457049 -1.2093161 0.28352404
-0.042438515 -1.2243727 0.29034331
0.17619915 -1.0742121 0.2890752
0.17296867 -1.0734524 0.30260921
-0.0057873302 -1.2254262 0.28695732
0.16883591 -1.0718734 0.31693423
0.16539212 -1.0700817 0.33172393
0.16401541 -1.0689234 0.34696609
0.16524413 -1.0688303 0.36289674
0.15255623 -1.0633538 0.37585992
0.035120353 -1.2092777 0.2776379
0.13010165 -1.0869311 0.3734476
0.13028413 -1.0870216 0.35589069
0.14048216 -1.0947717 0.34311032
0.1450616 -1.0982614 0.32818905
0.15030229 -1.1025184 0.3135561
0.084286958 -1.1804268 0.26557338
0.15597703 -1.1063203 0.29884946
0.161314 -1.10943 0.28292477
-0.086295031 -0.805107 0.2963545
-0.086422987 -0.80983645 0.31259742
0.11241435 -1.1641736 0.26397216
0.13828303 -1.1409758 0.28380942
0.13287683 -1.1370728 0.29707304
0.14090094 -1.1451894 0.26893124
0.12659328 -1.1316888 0.3102448
0.12016761 -1.1241291 0.32426468
0.11925635 -1.1236846 0.34129471
0.11969972 -1.1259868 0.3610447
0.17803273 -1.0743321 0.27790713
0.16544794 -1.1116556 0.26375824
0.10064998 -1.1563761 0.37008584
0.10364133 -1.1608218 0.35247156
0.10690171 -1.1604097 0.32865739
0.10810664 -1.1599307 0.31147322
0.10874877 -1.1598557 0.29613847
0.10828797 -1.1589628 0.27992716
0.15127932 -0.83763576 0.2938382
0.032683577 -1.2082757 0.29093772
0.032365404 -1.2069888 0.30154997
0.038452499 -1.1988508 0.32005766
0.042520244 -1.1962816 0.34864491
0.044765517 -1.1944417 0.36585611
0.082657687 -1.180958 0.2801702
0.040715672 -0.80166626 0.26422757
0.080735959 -1.1826766 0.29308963
0.080669895 -1.1836227 0.30984053
0.082255125 -1.1847231 0.3369514
0.080400638 -1.1857158 0.36051542
0.077723861 -1.1837999 0.38219941
-0.0032154098 -0.78996772 0.26618809
-0.0022238444 -0.79303402 0.27472734
0.0076068374 -0.79692632 0.28145295
0.054125991 -0.80684644 0.28105569
0.040715672 -0.80166626 0.26422757
0.15127932 -0.83763576 0.2938382
0.15865517 -0.9451766 0.31091321
0.16421348 -0.93868911 0.3047916
0.17742491 -0.92944521 0.29313558
0.18371116 -0.92386436 0.28515828
0.18631564 -0.92266423 0.27352458
0.1733342 -0.96071047 0.30949265
0.17867103 -0.96004462 0.30101022
0.18445329 -0.96157026 0.29338321
0.19055562 -0.96130192 0.28529841
0.19587398 -0.96090758 0.27676916
0.19570585 -1.0059843 0.31780145
0.19897121 -1.0034522 0.30891272
0.20057988 -0.99768662 0.29972899
0.20417216 -0.9985466 0.29051542
0.20369196 -0.99961257 0.28167868
0.17200242 -1.0144922 0.29753745
0.18184678 -1.0282118 0.29118824
0.18768576 -1.0335612 0.2855323
0.19010113 -1.0360507 0.28161418
0.15058284 -1.0607102 0.27883324
0.16582884 -1.066787 0.28189841
0.17366883 -1.0712568 0.27879798
0.17735378 -1.073473 0.27544767
0.14283863 -1.0945563 0.27687612
0.15479766 -1.1058944 0.27875447
0.16193798 -1.1105508 0.27243552
0.16544794 -1.1116556 0.26375824
0.13146186 -1.1379899 0.2894699
0.13460769 -1.1429979 0.28273362
0.13751863 -1.1444466 0.27571446
0.14090094 -1.1451894 0.26893124
0.10057487 -1.1432821 0.2800552
0.10911627 -1.1569221 0.27532512
0.11146589 -1.1614199 0.26973984
0.11241435 -1.1641736 0.26397216
0.086883262 -1.157645 0.28341255
0.083256617 -1.1794379 0.28240705
0.08722847 -1.1777565 0.27157682
0.084286958 -1.1804268 0.26557338
0.019074624 -1.2144905 0.29225689
0.026536921 -1.2119282 0.28661904
0.035120353 -1.2092777 0.2776379
-0.011437876 -1.2210603 0.29588622
-0.0086134449 -1.2232744 0.29190344
-0.0057873302 -1.2254262 0.28695732
-0.040197756 -1.2198628 0.29740578
-0.041414436 -1.2222227 0.29387787
-0.042438515 -1.2243727 0.29034331
-0.081457049 -1.2093161 0.28352404
-0.13284601 -0.82242644 0.2922475
-0.12915401 -0.8226195 0.27970457
-0.090753466 -0.81253368 0.31399727
-0.092331916 -0.80841935 0.30305186
-0.081296876 -0.80665946 0.28442973
-0.076416992 -0.80988324 0.2689001
-0.050700147 -0.80559009 0.31815776
0.0095682135 -0.80037475 0.29167315
-0.031988107 -0.8016181 0.30783454
-0.040048875 -0.79369193 0.28050554
-0.043398675 -0.79425937 0.27185199
-0.042872902 -0.79388809 0.26513121
-0.0059771906 -0.79416066 0.28412044
-0.0093598207 -0.79870105 0.30053541
-0.0078759128 -0.8049261 0.31606475
-0.043130245 -0.80518174 0.32116419
-0.04571886 -0.79898411 0.30659056
-0.044146389 -0.79570162 0.28726998
