# .PCD v0.7 - Point Cloud Data file format
VERSION 0.7
FIELDS x y z
SIZE 4 4 4
TYPE F F F
COUNT 1 1 1
WIDTH 299
HEIGHT 1
VIEWPOINT 0 0 0 1 0 0 0
POINTS 299
DATA ascii
2.019794 3.089396 2.5196687e-09
1.9258466 3.0893929 3.1744927e-05
1.8318808 3.0893734 0.00022664954
1.7378981 3.089335 0.00068582059
-3.5228946 -2.7422726 0
-3.5228946 -2.8116972 0
-3.5228946 -2.8811219 0
-3.5228946 -2.9505465 0
-3.5228946 -3.0199714 0
-3.4289508 -2.9505467 0
-3.4289508 -2.8811221 0
-3.4289508 -2.8116975 0
-3.4289508 -2.7422729 0
-3.4289508 -2.6728482 0
-3.4289508 -2.6034236 0
-3.3350072 -2.8116975 0
-3.3350072 -2.7422729 0
-3.3350072 -2.6728482 0
-3.3350072 -2.6034236 0
-3.3350072 -2.5339992 0
-3.2410634 -2.7422729 0
-3.2410634 -2.6728482 0
-3.2410634 -2.6034236 0
-3.2410634 -2.5339992 0
-3.2410634 -2.4645746 0
-3.2411351 -2.3951473 0.0002381675
-3.1471195 -2.6034236 3.6098521e-07
-3.1471214 -2.5339999 5.6822362e-05
-3.1473219 -2.4645648 0.00083950587
-3.1479127 -2.3951161 0.0028000909
-3.1484299 -2.3256834 0.004376323
-3.0533113 -2.5340037 0.00089277839
-3.0540252 -2.4645474 0.003287348
-3.0546517 -2.3951151 0.0052702562
-3.0551989 -2.3255808 0.0067919376
-3.0559239 -2.2555704 0.0086424919
-3.0565789 -2.1854947 0.010432057
-2.9612865 -2.3951485 0.0074215895
-2.9618988 -2.3254995 0.0090170708
-2.9626422 -2.2554598 0.010890432
-2.9632814 -2.1853828 0.012643883
-2.9637642 -2.115402 0.014175666
-2.8684683 -2.3255537 0.010910056
-2.8692021 -2.255543 0.012709731
-2.8698242 -2.1854861 0.014362259
-2.8702772 -2.1155119 0.015786996
-2.5881155 -1.6994406 0.015708728
-2.4937911 -1.7000495 0.014670327
-2.4935069 -1.6306785 0.013382262
-2.4932487 -1.5613964 0.012020539
-2.3996294 -1.7703365 0.014132077
-2.3993526 -1.7007889 0.013186305
-2.3991456 -1.6313379 0.01210828
-2.3989544 -1.5619916 0.010850308
-2.3987713 -1.4927477 0.0095405392
-2.304894 -1.7015262 0.011730478
-2.3047917 -1.6320115 0.010823234
-2.3046787 -1.5626012 0.0096551618
-2.3045578 -1.4933022 0.0084050037
-2.3044615 -1.4240968 0.0074783759
-2.3044233 -1.3549241 0.0073631993
-2.2106674 -1.5628414 0.010057557
-2.2105851 -1.4934938 0.0089732511
-2.2105434 -1.4242188 0.0084031057
-2.2105563 -1.3549932 0.0086915381
-2.2106085 -1.2857761 0.0096985642
-2.1167421 -1.4934602 0.010770394
-2.1167159 -1.4241757 0.010397067
-2.1167414 -1.3549637 0.010754105
-2.1168039 -1.2857893 0.011759502
-2.1168933 -1.2166106 0.013213513
-2.1170137 -1.1474034 0.014983916
-2.0229285 -1.354929 0.013124558
-2.0230029 -1.2857914 0.01413857
-2.0231035 -1.2166747 0.015568539
-2.023236 -1.1475337 0.017366586
-2.0234263 -1.0783424 0.019616196
1.5460833 2.7444601 0.022209276
1.5469815 2.8133845 0.017383648
1.547832 2.8823016 0.012934214
1.6407582 2.7440841 0.018156653
1.6415347 2.8130863 0.013798078
1.6422524 2.8820896 0.0099069588
1.6428907 2.9511201 0.0065361965
1.6434376 3.0201871 0.0037363763
1.7360308 2.8128135 0.010519739
1.7366207 2.8819025 0.0072072106
1.7371311 2.9510181 0.004456549
1.7375522 3.0201643 0.0023081931
1.8309242 2.8817472 0.004946833
1.8313172 2.9509306 0.0028337149
1.8316332 3.020143 0.0012741933
1.9256803 3.0201192 0.00066139194
-2.2119123e-08 1.0262069 0.0099999905
0.0051126927 1.0257033 0.0099999905
0.010028946 1.024212 0.0099999905
0.014559752 1.0217903 0.0099999905
0.01853106 1.0185311 0.0099999905
0.021790242 1.0145597 0.0099999905
0.024212016 1.010029 0.010000005
0.025703335 1.0051126 0.010000005
0.026206886 1 0.010000005
0.025703335 0.99488729 0.010000005
0.024212016 0.98997104 0.010000005
0.021790255 0.98544025 0.0099999905
0.01853106 0.98146892 0.0099999905
0.01455974 0.97820973 0.0099999905
0.010028946 0.975788 0.0099999905
0.0051127016 0.97429663 0.0099999905
-7.0755575e-09 0.97379309 0.0099999905
-0.0051126778 0.97429663 0.0099999905
-0.010028923 0.975788 0.0099999905
-0.014559763 0.97820979 0.0099999905
-0.018531073 0.98146892 0.0099999905
-0.025703324 0.99488729 0.0099999905
-0.026206886 1 0.0099999905
-0.025703335 1.0051126 0.0099999905
-0.024212003 1.010029 0.0099999905
-0.021790266 1.0145597 0.0099999905
-0.018531073 1.0185311 0.0099999905
-0.014559734 1.0217903 0.0099999905
-0.010028941 1.024212 0.0099999905
-0.0051127048 1.0257033 0.0099999905
-0.021790231 0.98544025 0.0099999905
-0.024212016 0.98997104 0.0099999905
0.027690137 1.1392077 0.0099999905
0.02392723 1.1202903 0.0099999905
0.020164324 1.101373 0.0099999905
0.016401416 1.0824555 0.0099999905
0.012638508 1.0635381 0.0099999905
0.0088756001 1.0446208 0.0099999905
-1.9664284e-08 1.0454949 0.0099999905
-1.7209446e-08 1.0647829 0.0099999905
-1.4754607e-08 1.0840709 0.0099999905
-1.2299769e-08 1.103359 0.0099999905
-9.8449311e-09 1.1226469 0.0099999905
-7.3900921e-09 1.141935 0.0099999905
0.061637789 1.1488292 0.0099918842
0.054316171 1.1311308 0.0099999905
0.046934966 1.1133111 0.0099999905
0.039553761 1.0954912 0.0099999905
0.032172557 1.0776714 0.0099999905
0.024791354 1.0598516 0.0099999905
0.01741015 1.0420318 0.0099999905
0.078787915 1.1179168 0.0099799186
0.068139002 1.1019772 0.0099999905
0.057423152 1.0859399 0.0099999905
0.046707302 1.0699024 0.0099999905
0.035991453 1.0538651 0.0099999905
0.025275601 1.0378276 0.0099999905
0.10007682 1.1000807 0.0099604875
0.086724497 1.0867245 0.0099999905
0.073085807 1.0730858 0.0099999905
0.059447121 1.0594472 0.0099999905
0.045808434 1.0458084 0.0099999905
0.032169748 1.0321697 0.0099999905
0.11801463 1.0788548 0.0099999905
0.10197723 1.068139 0.0099999905
0.085939832 1.0574231 0.0099999905
0.069902435 1.0467073 0.0099999905
0.053865034 1.0359914 0.0099999905
0.037827637 1.0252756 0.0099999905
0.13113084 1.0543162 0.0099999905
0.11331103 1.046935 0.0099999905
0.095491223 1.0395538 0.0099999905
0.077671424 1.0321726 0.0099999905
0.059851617 1.0247914 0.0099999905
0.042031817 1.0174102 0.0099999905
0.13920774 1.0276902 0.0099999905
0.12029033 1.0239272 0.0099999905
0.10137293 1.0201644 0.0099999905
0.082455538 1.0164014 0.0099999905
0.063538134 1.0126386 0.0099999905
0.044620734 1.0088756 0.0099999905
0.12264698 1 0.0099999905
0.10335896 1 0.0099999905
0.084070943 1 0.0099999905
0.064782925 1 0.0099999905
0.045494907 1 0.0099999905
0.10137293 0.97983569 0.0099999905
0.082455538 0.98359859 0.0099999905
0.063538134 0.98736149 0.0099999905
0.044620734 0.99112439 0.0099999905
0.095491223 0.96044624 0.0099999905
0.077671424 0.96782744 0.0099999905
0.059851617 0.97520864 0.0099999905
0.042031817 0.98258984 0.0099999905
0.085939854 0.94257689 0.0099999905
0.069902457 0.95329273 0.0099999905
0.053865053 0.96400857 0.0099999905
0.037827652 0.97472441 0.0099999905
0.073085807 0.92691422 0.0099999905
0.059447121 0.94055289 0.0099999905
0.045808434 0.95419157 0.0099999905
0.032169748 0.96783024 0.0099999905
0.057423141 0.91406012 0.0099999905
0.046707291 0.93009752 0.0099999905
0.035991441 0.94613492 0.0099999905
0.025275588 0.96217233 0.0099999905
0.039553761 0.90450877 0.0099999905
0.032172557 0.92232859 0.0099999905
0.024791354 0.94014835 0.0099999905
0.01741015 0.95796818 0.0099999905
0.020164324 0.89862704 0.0099999905
0.016401418 0.91754448 0.0099999905
0.012638512 0.93646187 0.0099999905
0.0088756075 0.95537925 0.0099999905
-1.285165e-08 0.87735301 0.0099999905
-1.1696431e-08 0.89664102 0.0099999905
-1.0541213e-08 0.91592908 0.0099999905
-9.3859951e-09 0.93521708 0.0099999905
-8.2307769e-09 0.95450509 0.0099999905
-0.027690122 0.86079228 0.0099999905
-0.023927215 0.87970966 0.0099999905
-0.020164309 0.89862704 0.0099999905
-0.016401401 0.91754448 0.0099999905
-0.012638493 0.93646187 0.0099999905
-0.0088755852 0.95537925 0.0099999905
-0.054316159 0.86886919 0.0099999905
-0.046934951 0.88668895 0.0099999905
-0.039553743 0.90450877 0.0099999905
-0.032172538 0.92232859 0.0099999905
-0.024791332 0.94014835 0.0099999905
-0.017410127 0.95796818 0.0099999905
-0.089570709 0.86594796 0.0099999905
-0.078854859 0.88198537 0.0099999905
-0.068139009 0.89802277 0.0099999905
-0.057423163 0.91406018 0.0099999905
-0.046707314 0.93009758 0.0099999905
-0.035991464 0.94613498 0.0099999905
-0.025275612 0.96217239 0.0099999905
-0.11400186 0.88599813 0.0099999905
-0.10036317 0.89963681 0.0099999905
-0.086724482 0.91327548 0.0099999905
-0.073085807 0.92691416 0.0099999905
-0.059447121 0.94055289 0.0099999905
-0.045808438 0.95419157 0.0099999905
-0.032169756 0.96783024 0.0099999905
-0.14193499 1 0.0099999905
-0.12264698 1 0.0099999905
-0.10335896 1 0.0099999905
-0.084070943 1 0.0099999905
-0.064782925 1 0.0099999905
-0.045494907 1 0.0099999905
-0.044620726 0.99112439 0.0099999905
-0.063538127 0.98736149 0.0099999905
-0.082455538 0.98359859 0.0099999905
-0.10137293 0.97983569 0.0099999905
-0.12029034 0.97607273 0.0099999905
-0.13920775 0.97230983 0.0099999905
-0.12029033 1.0239272 0.0099999905
-0.10137293 1.0201644 0.0099999905
-0.082455538 1.0164014 0.0099999905
-0.063538134 1.0126386 0.0099999905
-0.044620734 1.0088756 0.0099999905
-0.11331102 1.046935 0.0099999905
-0.095491216 1.0395538 0.0099999905
-0.077671409 1.0321726 0.0099999905
-0.059851605 1.0247914 0.0099999905
-0.042031806 1.0174102 0.0099999905
-0.10197725 1.068139 0.0099999905
-0.085939854 1.0574231 0.0099999905
-0.069902457 1.0467073 0.0099999905
-0.053865056 1.0359914 0.0099999905
-0.037827663 1.0252756 0.0099999905
-0.08672452 1.0867245 0.0099999905
-0.073085837 1.0730858 0.0099999905
-0.059447147 1.0594472 0.0099999905
-0.045808453 1.0458084 0.0099999905
-0.032169763 1.0321697 0.0099999905
-0.068138994 1.1019772 0.0099999905
-0.057423141 1.0859399 0.0099999905
-0.046707287 1.0699024 0.0099999905
-0.035991438 1.0538651 0.0099999905
-0.025275586 1.0378276 0.0099999905
-0.046934959 1.1133111 0.0099999905
-0.039553758 1.0954912 0.0099999905
-0.032172553 1.0776714 0.0099999905
-0.024791349 1.0598516 0.0099999905
-0.017410144 1.0420318 0.0099999905
-0.023927225 1.1202903 0.0099999905
-0.02016432 1.101373 0.0099999905
-0.016401416 1.0824555 0.0099999905
-0.012638512 1.0635381 0.0099999905
-0.0088756084 1.0446208 0.0099999905
-0.13405202 0.9104293 0.0099999905
-0.11801463 0.92114514 0.0099999905
-0.10197723 0.93186098 0.0099999905
-0.085939832 0.94257683 0.0099999905
-0.069902435 0.95329267 0.0099999905
-0.053865027 0.96400857 0.0099999905
-0.03782763 0.97472441 0.0099999905
-0.042031821 0.98258984 0.0099999905
-0.059851624 0.97520864 0.0099999905
-0.077671431 0.96782744 0.0099999905
-0.09549123 0.96044624 0.0099999905
-0.11331103 0.95306504 0.0099999905
-0.13113083 0.94568384 0.0099999905
-0.14895062 0.93830258 0.0099999905
