-3.244446 -1.491715 0.008820383
-3.2442088 -1.4227595 0.007535154
-3.2439191 -1.3538616 0.006000343
-3.243632 -1.2849362 0.0044576605
-3.2434714 -1.2158018 0.0035463294
-3.243439 -1.1464416 0.003343388
-3.2434406 -1.0770175 0.0033457833
-3.2434425 -1.0075938 0.0033492823
-3.2434487 -0.9381732 0.0033722038
-3.2435362 -0.86875415 0.003494452
-3.2437258 -0.79933554 0.0037340405
-3.2439954 -0.7299173 0.004064014
-3.2443354 -0.66049737 0.0044724387
-3.24481 -0.591067 0.005021135
-3.2454054 -0.52162516 0.005694477
-3.246113 -0.45217118 0.0064812377
-3.2469003 -0.3827075 0.007349974
-3.2477167 -0.31323853 0.008256403
-3.248503 -0.2437688 0.009143968
-3.2492077 -0.17430225 0.009963346
-3.2497993 -0.104841724 0.010683106
-3.2503011 -0.0353886 0.011327289
-3.2507184 0.034055885 0.0119091
-3.2510643 0.10349947 0.012475516
-3.2513998 0.1729686 0.013068486
-3.2517579 0.24246675 0.013736476
-3.2521255 0.31199294 0.014466983
-3.2525103 0.3815623 0.015275188
-3.2528925 0.4511718 0.016134055
-3.2532501 0.52081245 0.017007936
-3.253561 0.5904699 0.017853843
-3.2538044 0.6601275 0.018628212
-3.25397 0.7297716 0.019297287
-3.254058 0.7993947 0.019844504
-3.2540812 0.86899686 0.0202721
-3.254057 0.93858165 0.020588608
-3.2539995 1.0081524 0.020803057
-3.2539222 1.077716 0.020932296
-3.2538366 1.1472789 0.020996379
-3.253747 1.2168416 0.021008538
-3.253654 1.286401 0.020976521
-3.253555 1.3559537 0.020904167
-3.2534502 1.4254972 0.02079174
-3.2533383 1.4950298 0.020636579
-3.253223 1.5645517 0.020434886
-3.2531068 1.6340619 0.020184143
-3.2529926 1.703559 0.019884968
-3.252881 1.7730411 0.019541755
-3.25277 1.8425056 0.019162185
-3.2526565 1.9119502 0.018756347
-3.2525368 1.9813739 0.018335674
-3.2524092 2.0507762 0.017911775
-3.2522733 2.1201582 0.017495267
-3.252131 2.189521 0.01709455
-3.2519844 2.2588685 0.016714495
-3.2518356 2.3282053 0.016354993
-3.251683 2.397538 0.0160098
-3.2515228 2.4668725 0.01566619
-3.2513485 2.536216 0.015305531
-3.251151 2.6055737 0.014903924
-3.250921 2.6749492 0.014432342
-3.250649 2.7443442 0.013857127
-3.2503238 2.813756 0.013143196
-3.2499385 2.8831825 0.012263017
-3.2494948 2.9526198 0.011214751
-3.2490172 3.0220692 0.010050804
-3.1471195 -3.0199714 0
-3.1471195 -2.9505467 0
-3.1471195 -2.881122 0
-3.1471195 -2.8116975 0
-3.1471195 -2.7422729 0
-3.1471195 -2.6728482 0
-3.1471195 -2.6034236 3.609852E-07
-3.1471214 -2.534 5.6822362E-05
-3.147322 -2.4645648 0.00083950587
-3.1479127 -2.395116 0.002800091
-3.1484299 -2.3256834 0.004376323
-3.1490448 -2.2558568 0.005968049
-3.1497009 -2.1858215 0.0077055986
-3.150273 -2.1158237 0.009402734
-3.1507215 -2.0459557 0.010868465
-3.1510477 -1.9762236 0.012080606
-3.1512666 -1.9066333 0.012978751
-3.1513944 -1.8371718 0.013508872
-3.1514425 -1.7678249 0.013613851
-3.1514149 -1.6985797 0.013306537
-3.1513145 -1.6294187 0.012657594
-3.1511474 -1.5603212 0.011762627
-3.1509197 -1.491275 0.010661875
-3.1506352 -1.4222748 0.009363114
-3.1503038 -1.3533297 0.007838159
-3.1499696 -1.284438 0.006133167
-3.1496737 -1.215534 0.004450509
-3.149522 -1.1464002 0.003499688
-3.1495054 -1.0770245 0.003381134
-3.1495142 -1.00761 0.003436367
-3.1495404 -0.9381989 0.0035283656
-3.14967 -0.86878884 0.0037399551
-3.1498964 -0.7993787 0.0040612537
-3.150197 -0.7299682 0.004464631
-3.1505823 -0.6605538 0.0049584405
-3.1511047 -0.59112775 0.0055978703
-3.1517522 -0.5216898 0.006371089
-3.15252 -0.4522395 0.0072765085
-3.1533747 -0.38277978 0.008280574
-3.1542513 -0.3133156 0.009322584
-3.1550865 -0.24385132 0.010339933
-3.15583 -0.17439117 0.011285252
-3.1564713 -0.1049385 0.012169925
-3.1570327 -0.03549463 0.013009958
-3.157504 0.03394116 0.0137843955
-3.1579163 0.10338527 0.014563232
-3.1583436 0.1728636 0.015409932
-3.1587858 0.24237263 0.016320348
-3.1592278 0.3119122 0.017272227
-3.159677 0.38149858 0.018279774
-3.1601176 0.4511303 0.019321013
-3.160523 0.5207931 0.020350082
-3.1608663 0.59046775 0.021317277
-3.16113 0.66013634 0.022182286
-3.1613069 0.72978514 0.022919701
-3.1614032 0.7994086 0.023523241
-3.1614342 0.869008 0.024001904
-3.161416 0.938587 0.02436549
-3.1613643 1.0081502 0.024625141
-3.161293 1.0777062 0.024797793
-3.1612148 1.1472609 0.024899643
-3.1611335 1.2168144 0.024940839
-3.1610496 1.2863643 0.024927434
-3.1609607 1.355908 0.024861965
-3.160865 1.4254445 0.024743281
-3.1607625 1.4949743 0.024567144
-3.1606555 1.5644987 0.024328245
-3.1605477 1.6340181 0.024022965
-3.160442 1.7035309 0.023651687
-3.1603389 1.7730334 0.023219729
-3.1602356 1.8425213 0.022736818
-3.1601274 1.9119898 0.022215774
-3.1600094 1.9814355 0.02167101
-3.1598775 2.0508564 0.021117065
-3.1597297 2.1202517 0.02056723
-3.159567 2.1896229 0.02003222
-3.1593919 2.2589736 0.01951883
-3.159207 2.3283086 0.019028433
-3.1590135 2.3976357 0.018555501
-3.1588085 2.4669623 0.01808671
-3.1585872 2.536297 0.017601091
-3.1583412 2.6056473 0.017070957
-3.1580613 2.6750183 0.016462613
-3.157737 2.7444122 0.015737286
-3.1573567 2.8138287 0.014854525
-3.1569102 2.8832643 0.013782108
-3.1563978 2.9527156 0.012516529
-3.1558418 3.0221815 0.011114484
-3.0531757 -3.0199714 0
-3.0531757 -2.9505467 0
-3.0531757 -2.881122 0
-3.0531757 -2.8116975 0
-3.0531757 -2.7422729 0
-3.0531774 -2.672849 4.7244128E-05
-3.0531845 -2.603427 0.00023498553
-3.0533113 -2.5340037 0.0008927784
-3.0540252 -2.4645474 0.003287348
-3.0546517 -2.3951151 0.005270256
-3.055199 -2.3255808 0.0067919376
-3.055924 -2.2555704 0.008642492
-3.0565789 -2.1854947 0.010432057
-3.0571015 -2.1155057 0.012046987
-3.0574827 -2.045649 0.013435272
-3.057737 -1.9759443 0.014534248
-3.0578878 -1.9063838 0.015284264
-3.0579567 -1.8369485 0.015574395
-3.057948 -1.7676297 0.015359565
-3.0578697 -1.6983913 0.014801258
-3.0577228 -1.6292151 0.013992204
-3.0575068 -1.5600932 0.012971186
-3.057226 -1.4910183 0.011761614
-3.0568993 -1.4219893 0.010401629
-3.0565662 -1.3530123 0.008941383
-3.0562353 -1.2840823 0.0073656193
-3.0559144 -1.2152073 0.0056200153
-3.0556593 -1.1462861 0.0040403972
-3.0555909 -1.0770401 0.003571403
-3.055602 -1.0076478 0.0036454157
-3.0556555 -0.9382466 0.0038157953
-3.0558207 -0.8688456 0.0041131587
-3.056079 -0.79944426 0.0045138635
-3.056407 -0.73004246 0.004993225
-3.0568366 -0.6606349 0.0055866237
-3.0574014 -0.5912166 0.006337377
-3.058101 -0.5217864 0.00724359
-3.0589397 -0.45234284 0.008307465
-3.059864 -0.38288978 0.009473704
-3.060802 -0.31343243 0.010673224
-3.061689 -0.24397685 0.011867457
-3.0624774 -0.17452717 0.013013836
-3.0631819 -0.105084985 0.014116582
-3.0638025 -0.035651106 0.015167369
-3.0643325 0.03377935 0.016160376
-3.064822 0.10322973 0.017197872
-3.0653293 0.17271605 0.018295215
-3.0658393 0.24223307 0.019427167
-3.0663404 0.3117849 0.020580132
-3.066845 0.38139 0.021773472
-3.0673301 0.4510418 0.022973575
-3.0677645 0.5207211 0.024125881
-3.0681224 0.59040743 0.025182532
-3.0683894 0.66008306 0.026109893
-3.068563 0.7297353 0.026891498
-3.0686526 0.79935974 0.027529452
-3.0686748 0.86895764 0.028036712
-3.0686457 0.9385316 0.028424686
-3.068582 1.0080876 0.028706826
-3.0685012 1.0776345 0.028900463
-3.0684159 1.1471773 0.029019678
-3.0683322 1.2167174 0.029072687
-3.0682507 1.2862526 0.029063767
-3.068168 1.3557825 0.028993793
-3.0680814 1.4253078 0.028860109
-3.0679903 1.4948312 0.028657222
-3.0678966 1.5643556 0.028378788
-3.0678039 1.6338825 0.028020333
-3.0677152 1.7034109 0.027581662
-3.0676312 1.7729354 0.027067997
-3.0675488 1.8424501 0.026489627
-3.067462 1.9119476 0.025860537
-3.067364 1.9814227 0.025196712
-3.0672488 2.0508704 0.02451456
-3.0671115 2.1202898 0.023829466
-3.0669518 2.1896803 0.023154339
-3.066771 2.2590456 0.022498159
-3.066571 2.3283904 0.021864329
-3.0663495 2.3977215 0.021254577
-3.0660925 2.4670486 0.020663323
-3.0658333 2.5363872 0.020032758
-3.0655677 2.6057367 0.019344544
-3.065258 2.6751022 0.018585933
-3.064888 2.7444983 0.017703317
-3.064457 2.813921 0.016648743
-3.063953 2.8833678 0.015385795
-3.0633721 2.9528341 0.013908774
-3.0627358 3.0223188 0.012276121
-2.959232 -3.0199714 0
-2.959232 -2.9505467 0
-2.959232 -2.881122 0
-2.959232 -2.8116975 0
-2.959236 -2.7422745 0.00010249343
-2.95925 -2.6728556 0.00043553
-2.9592788 -2.6034427 0.0009580347
-2.9599364 -2.534007 0.003195848
-2.9606738 -2.4645615 0.0055750674
-2.9612865 -2.3951485 0.0074215895
-2.9618988 -2.3254995 0.009017071
-2.9626422 -2.2554598 0.010890432
-2.9632814 -2.1853828 0.012643883
-2.9637642 -2.115402 0.014175666
-2.964089 -2.0455592 0.015463291
-2.9642785 -1.9758743 0.0164477
-2.9643688 -1.9063324 0.016997248
-2.964379 -1.8369172 0.016996698
-2.9643197 -1.7675964 0.016552504
-2.9641929 -1.6983393 0.015828101
-2.9639945 -1.6291397 0.014870022
-2.9637237 -1.5599914 0.013707254
-2.9634004 -1.4908935 0.012389255
-2.9630663 -1.4218528 0.010989295
-2.9627328 -1.3528627 0.009537963
-2.9624112 -1.2839177 0.008061269
-2.9621053 -1.2150197 0.0064955954
-2.961829 -1.1461519 0.004829866
-2.9617002 -1.077056 0.003940289
-2.961705 -1.0077052 0.003972028
-2.9617877 -0.9383144 0.0042280024
-2.9619842 -0.8689229 0.0046129124
-2.9622707 -0.7995315 0.0051020337
-2.962624 -0.73014075 0.0056797746
-2.963097 -0.66074383 0.0064062793
-2.9637022 -0.59133744 0.0072970395
-2.9644582 -0.52191776 0.008366769
-2.96537 -0.45248288 0.009608851
-2.9663625 -0.38303882 0.010968029
-2.9673624 -0.3135925 0.0123950085
-2.9683022 -0.24414852 0.013815476
-2.9691436 -0.17471032 0.01518411
-2.969909 -0.10527865 0.016512664
-2.9705892 -0.035851166 0.017795766
-2.9711826 0.033580124 0.019039549
-2.97174 0.103034906 0.020328326
-2.9723063 0.17252535 0.021648077
-2.9728649 0.24204856 0.02297387
-2.9734128 0.31161392 0.02430608
-2.9739552 0.38123557 0.025654204
-2.9744642 0.45090112 0.026973277
-2.9749074 0.5205901 0.028209997
-2.9752626 0.5902824 0.02932287
-2.975519 0.65996116 0.030286135
-2.9756765 0.729615 0.031091483
-2.975747 0.79923975 0.031746913
-2.975746 0.8688361 0.03226722
-2.9756918 0.9384055 0.03266482
-2.975603 1.0079542 0.032953825
-2.9754996 1.0774906 0.033150714
-2.9753964 1.1470199 0.033268556
-2.9753015 1.2165437 0.033315346
-2.9752154 1.2860619 0.03329493
-2.975135 1.3555754 0.03320732
-2.9750562 1.4250876 0.033048943
-2.9749768 1.494603 0.032813586
-2.9748986 1.5641259 0.03249436
-2.9748247 1.6336592 0.032086175
-2.974759 1.7032019 0.03158804
-2.9747021 1.7727484 0.031004276
-2.9746516 1.8422912 0.030344393
-2.9745998 1.9118214 0.02962194
-2.9745395 1.9813306 0.028852833
-2.9744613 2.050813 0.028053831
-2.9743583 2.120265 0.027241154
-2.9742265 2.1896858 0.026429087
-2.9740636 2.2590764 0.02562976
-2.9738078 2.3284261 0.0248795
-2.9735034 2.3977647 0.024146179
-2.9732265 2.4671144 0.023386654
-2.9729722 2.5364752 0.02258126
-2.9727228 2.605843 0.021716831
-2.972449 2.675216 0.02078234
-2.9720771 2.7446067 0.019745596
-2.971603 2.8140383 0.018516613
-2.971046 2.8834972 0.017065858
-2.9704015 2.95298 0.015385115
-2.969686 3.022484 0.013532493
-2.8652883 -3.0199714 0
-2.8652883 -2.9505467 0
-2.8652883 -2.881122 0
-2.8652923 -2.8116992 0.00010522319
-2.8653135 -2.7422836 0.00055453094
-2.8653524 -2.6728778 0.0012577716
-2.8656201 -2.6034746 0.0025246697
-2.866451 -2.534038 0.0051620863
-2.8672187 -2.4646077 0.007535366
-2.8678322 -2.3952098 0.009304305
-2.8684683 -2.3255537 0.010910056
-2.8692021 -2.255543 0.012709731
-2.8698242 -2.185486 0.014362259
-2.8702772 -2.115512 0.015786996
-2.8705542 -2.045675 0.016955119
-2.8706853 -1.9759991 0.017794687
-2.8707175 -1.9064608 0.018147305
-2.870671 -1.8370428 0.01791925
-2.87056 -1.767699 0.017314818
-2.8703797 -1.6984158 0.016436003
-2.8701258 -1.6291878 0.015322471
-2.8698092 -1.5600142 0.014024235
-2.8694775 -1.4909041 0.012636293
-2.869146 -1.4218552 0.011221158
-2.8688228 -1.3528594 0.009814699
-2.8685167 -1.2839055 0.008424781
-2.8682334 -1.2149857 0.00702035
-2.8679714 -1.1461136 0.0054650754
-2.8678207 -1.0770935 0.0044167796
-2.8678234 -1.0077789 0.0044349814
-2.8679333 -0.9384006 0.0047845426
-2.868157 -0.8690205 0.0052760947
-2.8684697 -0.7996422 0.0058868057
-2.8688512 -0.7302661 0.0066000973
-2.8693628 -0.6608835 0.0074827177
-2.8700037 -0.5914917 0.008533255
-2.8708234 -0.5220836 0.009788149
-2.8718038 -0.45266086 0.011262181
-2.8728642 -0.38322976 0.012881377
-2.8739223 -0.31379607 0.014556907
-2.8749115 -0.24436454 0.016213188
-2.8758078 -0.17493775 0.0178177
-2.8766289 -0.10551351 0.019390881
-2.8773656 -0.03608813 0.020926317
-2.8780093 0.033342764 0.022405807
-2.8786123 0.10279792 0.023911327
-2.8792126 0.17228922 0.025414905
-2.8798006 0.24181864 0.02690169
-2.8803759 0.3113962 0.028375322
-2.8809326 0.3810283 0.029829023
-2.881443 0.45070073 0.03121842
-2.8818767 0.52039355 0.032497615
-2.8822157 0.5900876 0.033633277
-2.8824513 0.6597666 0.034607127
-2.8825846 0.7294203 0.03541702
-2.8826277 0.79904467 0.036074046
-2.8825967 0.868639 0.03659307
-2.88251 0.9382043 0.03698671
-2.8823895 1.0077454 0.03726873
-2.882257 1.0772704 0.037454154
-2.8821297 1.1467851 0.037555087
-2.8820174 1.216292 0.0375798
-2.881922 1.2857928 0.037532885
-2.8818398 1.3552904 0.037414934
-2.8817651 1.4247897 0.03722263
-2.881695 1.4942969 0.036949866
-2.8816314 1.5638181 0.036589675
-2.8815765 1.6333567 0.036136553
-2.8815358 1.7029122 0.035588507
-2.88151 1.7724795 0.034948338
-2.8814979 1.8420503 0.034223773
-2.8814924 1.911614 0.03342664
-2.8814836 1.9811606 0.032571413
-2.8814607 2.0506828 0.031673815
-2.8814135 2.1201754 0.030749502
-2.8813093 2.1896272 0.0298167
-2.8810463 2.2590156 0.028905166
-2.8807614 2.3283916 0.028007178
-2.8805027 2.397772 0.027105184
-2.8802757 2.4671607 0.026175793
-2.8800657 2.5365548 0.025200568
-2.8798532 2.6059499 0.024165051
-2.879612 2.6753438 0.023056364
-2.879271 2.7447424 0.021853382
-2.8787656 2.814185 0.020447945
-2.8781652 2.8836575 0.018811587
-2.8774629 2.9531565 0.01693531
-2.8766725 3.0226789 0.014875497
-2.7713444 -3.0199714 0
-2.7713444 -2.9505467 0
-2.771346 -2.8811228 4.9156628E-05
-2.7713683 -2.811708 0.00050357974
-2.7714195 -2.742309 0.0013595662
-2.7714813 -2.6729178 0.0022779224
-2.7720404 -2.603523 0.0042061293
-2.772883 -2.5341027 0.006817954
-2.7736685 -2.4646854 0.009182382
-2.774314 -2.3952956 0.011001341
-2.7749145 -2.3257332 0.01249227
-2.775613 -2.2558064 0.014137796
-2.776217 -2.185794 0.015632574
-2.7766495 -2.1158297 0.016902292
-2.776889 -2.045989 0.017915826
-2.7769656 -1.9763077 0.018592296
-2.776938 -1.9067569 0.018778756
-2.7768319 -1.8373153 0.018397154
-2.776663 -1.7679402 0.01764821
-2.7764263 -1.6986233 0.016619999
-2.7761202 -1.6293628 0.015358649
-2.7757928 -1.5601717 0.013972963
-2.7754662 -1.4910516 0.012556856
-2.7751472 -1.4219947 0.011162141
-2.774844 -1.3529891 0.009819431
-2.7745621 -1.2840222 0.008535739
-2.7743068 -1.215085 0.0072759716
-2.774073 -1.1461943 0.0058821607
-2.7739415 -1.0771714 0.004959831
-2.7739549 -1.0078702 0.0050808615
-2.77409 -0.9385052 0.0055646487
-2.774339 -0.86913973 0.0062053967
-2.7746775 -0.7997776 0.00696871
-2.775088 -0.73041886 0.007846446
-2.7756324 -0.66105324 0.008900667
-2.7763097 -0.5916776 0.010139821
-2.777193 -0.522285 0.011658614
-2.778238 -0.45287699 0.01341142
-2.7793584 -0.38345984 0.015303388
-2.780468 -0.31403944 0.017238103
-2.7814996 -0.24462089 0.019139204
-2.7824438 -0.17520386 0.020994222
-2.7833118 -0.10578458 0.022820072
-2.7840827 -0.036363967 0.024579298
-2.7847521 0.033062674 0.02625374
-2.7853723 0.102514535 0.027919987
-2.7859812 0.17200533 0.029555902
-2.7865772 0.24154063 0.031154934
-2.787154 0.31112555 0.032711614
-2.787701 0.3807617 0.034212887
-2.7881925 0.45043567 0.035622057
-2.7886035 0.5201284 0.036902525
-2.7889175 0.5898216 0.038028367
-2.7891273 0.6594994 0.038986508
-2.7892349 0.72915196 0.039778326
-2.7892509 0.7987752 0.04041644
-2.78919 0.8683674 0.040915698
-2.789073 0.9379283 0.04128877
-2.7889218 1.0074621 0.041548878
-2.7887602 1.0769758 0.041709524
-2.7886083 1.146476 0.041781656
-2.7884765 1.2159666 0.041773267
-2.7883677 1.2854513 0.04168964
-2.7882788 1.3549345 0.041532688
-2.7882035 1.4244223 0.041300505
-2.7881382 1.4939224 0.04098806
-2.7880833 1.5634415 0.040588915
-2.7880435 1.6329845 0.04009733
-2.7880244 1.7025511 0.03951024
-2.7880297 1.772137 0.038828503
-2.7880578 1.8417338 0.038057394
-2.788104 1.9113303 0.037206095
-2.788157 1.9809159 0.03628666
-2.7882032 2.0504813 0.035312716
-2.7881477 2.119994 0.034284268
-2.7879446 2.1894445 0.03322743
-2.787732 2.2588804 0.032185268
-2.7875454 2.3283155 0.031149445
-2.7873895 2.397753 0.030100944
-2.7872565 2.4671922 0.029019462
-2.787125 2.5366287 0.027887559
-2.786977 2.6060593 0.026690384
-2.7867825 2.6754816 0.0254134
-2.7864404 2.7449045 0.024028335
-2.7859154 2.8143642 0.02243827
-2.785283 2.8838522 0.020616522
-2.7845323 2.9533665 0.018551564
-2.7836738 3.0229049 0.016297525
-2.6774008 -3.0199714 0
-2.6774008 -2.9505467 2.1197992E-07
-2.677414 -2.881128 0.00028495246
-2.677469 -2.811732 0.0011900646
-2.677549 -2.7423525 0.0023227166
-2.6776314 -2.6729743 0.0033077467
-2.6783512 -2.6035948 0.0055427323
-2.6792097 -2.5341976 0.008122494
-2.6800177 -2.4647937 0.010503666
-2.680709 -2.3954055 0.012439159
-2.6812694 -2.3259711 0.013839893
-2.681893 -2.2562027 0.015255131
-2.6824636 -2.18628 0.016532565
-2.6828804 -2.1163478 0.01757386
-2.6830962 -2.0464993 0.018370222
-2.6831224 -1.9767966 0.018857986
-2.6830297 -1.9072196 0.018894793
-2.6828585 -1.8377379 0.018412195
-2.682626 -1.7683237 0.01753377
-2.682332 -1.6989641 0.016370578
-2.6820066 -1.6296732 0.015019034
-2.681686 -1.5604639 0.013602129
-2.6813743 -1.4913297 0.012184896
-2.6810784 -1.4222589 0.010829595
-2.680804 -1.3532374 0.009581049
-2.6805568 -1.2842509 0.008445443
-2.680335 -1.2152984 0.007336556
-2.6801414 -1.1463776 0.0061747953
-2.6800618 -1.0772873 0.005661398
-2.6800995 -1.0079796 0.006027672
-2.6802585 -0.9386286 0.0067063784
-2.6805327 -0.8692805 0.0075296364
-2.680896 -0.799937 0.008472577
-2.681334 -0.7305963 0.009529858
-2.6819084 -0.6612486 0.010794287
-2.682631 -0.5918919 0.012316215
-2.683573 -0.5225153 0.014143121
-2.6846774 -0.4531216 0.016208261
-2.6858475 -0.38371792 0.018397663
-2.6869943 -0.31431153 0.020600695
-2.6880558 -0.24490574 0.022745892
-2.68903 -0.17549779 0.024834154
-2.6899145 -0.106088 0.02685146
-2.6906886 -0.03667751 0.028759768
-2.691356 0.032740302 0.030552257
-2.691965 0.10218696 0.032298278
-2.6925602 0.17167719 0.03399618
-2.6931396 0.24121575 0.035638776
-2.6936939 0.31080326 0.037213653
-2.694211 0.38043898 0.03870689
-2.69467 0.4501106 0.040089324
-2.69505 0.5198004 0.041331425
-2.6953368 0.5894906 0.04241318
-2.6955225 0.659166 0.04332627
-2.6956077 0.7288165 0.044074733
-2.6956015 0.7984375 0.044671882
-2.6955183 0.8680266 0.045132525
-2.6953769 0.93758327 0.04546899
-2.6952012 1.0071101 0.045693778
-2.695016 1.0766134 0.045819014
-2.6948411 1.1460999 0.04585449
-2.69469 1.2155755 0.045807432
-2.6945658 1.2850451 0.045683134
-2.6944654 1.3545156 0.045484576
-2.6943824 1.4239935 0.045211658
-2.6943138 1.4934874 0.04486115
-2.69426 1.5630045 0.044427756
-2.6942267 1.6325501 0.043905877
-2.6942222 1.7021253 0.04329144
-2.694252 1.7717267 0.04258331
-2.6943185 1.8413465 0.041783962
-2.6944163 1.9109745 0.040899467
-2.694532 1.9805971 0.039936833
-2.6945248 2.0501664 0.038849328
-2.6944184 2.1196878 0.03770255
-2.6943119 2.1891954 0.036562193
-2.6942363 2.2587016 0.035431053
-2.6941984 2.3282094 0.034293786
-2.694185 2.3977153 0.033128742
-2.6941774 2.4672146 0.031918023
-2.6941545 2.5367026 0.030646581
-2.6940947 2.6061773 0.029299302
-2.6939437 2.6756346 0.027858615
-2.6935449 2.7450943 0.026272187
-2.693019 2.8145766 0.02449222
-2.6923687 2.8840828 0.022482712
-2.6915812 2.953612 0.02023296
-2.6906624 3.0231633 0.017795494
-2.583457 -3.0199714 0
-2.5834587 -2.9505475 4.2469237E-05
-2.5835001 -2.8811436 0.0007380763
-2.583593 -2.811773 0.0020284518
-2.583696 -2.7424128 0.0033135433
-2.5837984 -2.6730475 0.004291363
-2.5845816 -2.6036887 0.006611403
-2.5854495 -2.5343153 0.009145341
-2.586267 -2.4649298 0.011506648
-2.5869832 -2.395546 0.013505714
-2.5875745 -2.3261664 0.015040199
-2.5880864 -2.2566323 0.016185243
-2.5885804 -2.1868756 0.017182352
-2.588961 -2.1170337 0.017918909
-2.589163 -2.0472045 0.018393422
-2.5891519 -1.977472 0.018610194
-2.5889876 -1.9078587 0.018461343
-2.588746 -1.8383176 0.017915327
-2.5884476 -1.7688485 0.016950075
-2.5881155 -1.6994406 0.015708728
-2.5877988 -1.6301174 0.01435209
-2.5874991 -1.5608797 0.012940548
-2.587216 -1.4917208 0.011545498
-2.5869536 -1.4226282 0.010254431
-2.5867186 -1.3535848 0.009138037
-2.586513 -1.2845765 0.00818804
-2.5863302 -1.2156113 0.007268484
-2.586202 -1.1466199 0.0065701446
-2.5861933 -1.0774219 0.006729393
-2.5862606 -1.0081038 0.007423961
-2.5864413 -0.9387695 0.008311636
-2.5867395 -0.86943996 0.009331275
-2.5871305 -0.8001135 0.010488471
-2.5876057 -0.7307876 0.011831364
-2.588222 -0.6614548 0.013455754
-2.5890014 -0.5921111 0.01535858
-2.5900004 -0.52274704 0.01755513
-2.591151 -0.45336568 0.01996418
-2.59235 -0.38397592 0.02244408
-2.5935073 -0.31458515 0.02487392
-2.5945714 -0.24519382 0.027197182
-2.5955367 -0.17580125 0.029403176
-2.5963995 -0.10640828 0.031479023
-2.5971463 -0.037013948 0.033407077
-2.5977862 0.032391023 0.03520068
-2.598365 0.101831235 0.036923867
-2.5989275 0.17131984 0.038599044
-2.599472 0.2408585 0.040212926
-2.599987 0.31044477 0.0417461
-2.600463 0.38007617 0.04318132
-2.6008828 0.44974187 0.044494495
-2.6012294 0.51942545 0.04566257
-2.6014895 0.5891101 0.046670735
-2.601654 0.65878075 0.047514528
-2.6017222 0.7284273 0.04819972
-2.6016998 0.7980443 0.04873945
-2.6016011 0.8676291 0.049148086
-2.6014433 0.93718034 0.04943719
-2.6012502 1.0066999 0.049618177
-2.6010466 1.0761932 0.049701937
-2.6008532 1.1456671 0.04969727
-2.6006832 1.2151283 0.049610674
-2.6005409 1.2845842 0.049447056
-2.6004236 1.3540422 0.049209822
-2.6003258 1.4235106 0.048900295
-2.6002438 1.4929975 0.048517145
-2.6001801 1.5625112 0.048056617
-2.6001422 1.632057 0.04751366
-2.6001413 1.7016375 0.046883587
-2.6001866 1.7712507 0.04616347
-2.6002827 1.8408898 0.045353126
-2.6004126 1.9105412 0.044440366
-2.600453 1.9801545 0.04334163
-2.6004548 2.049743 0.042173196
-2.6004665 2.1193242 0.04099791
-2.6005137 2.1889064 0.039827302
-2.6006057 2.2584927 0.03864977
-2.6007361 2.3280804 0.0374456
-2.6008866 2.3976626 0.036194626
-2.601027 2.467231 0.03488041
-2.6011238 2.5367818 0.033490937
-2.6011453 2.6063094 0.03200182
-2.6009262 2.6758058 0.030379662
-2.6005454 2.7453053 0.028598139
-2.6000395 2.8148181 0.026623651
-2.5993886 2.884347 0.024422485
-2.5985775 2.953892 0.021988181
-2.597608 3.0234528 0.019373694
-2.4895132 -3.0199714 0
-2.4895232 -2.9505513 0.00018086798
-2.4896064 -2.8811743 0.0013409884
-2.4897335 -2.8118308 0.002913929
-2.4898558 -2.7424896 0.004297862
-2.4899733 -2.6731386 0.005286885
-2.4907553 -2.6038015 0.00751004
-2.4916186 -2.53445 0.009965092
-2.492427 -2.4650862 0.012249955
-2.4931512 -2.395712 0.01425441
-2.4937565 -2.3263369 0.015846768
-2.4942381 -2.256948 0.016991746
-2.494626 -2.1874244 0.01773996
-2.4949143 -2.1177704 0.018130057
-2.4950683 -2.0480516 0.018185144
-2.4950306 -1.9783351 0.017947622
-2.4947975 -1.9086926 0.01745719
-2.4944804 -1.8390713 0.016797217
-2.4941213 -1.7695147 0.01584187
-2.493791 -1.7000495 0.014670327
-2.493507 -1.6306785 0.013382262
-2.4932487 -1.5613964 0.0120205395
-2.4930093 -1.4921987 0.010673222
-2.4927921 -1.4230764 0.009467998
-2.4926026 -1.3540138 0.008505471
-2.4924414 -1.2849975 0.007759367
-2.4923244 -1.2159759 0.007307507
-2.4922931 -1.1468408 0.0074608945
-2.492345 -1.0775598 0.008261335
-2.4924388 -1.0082415 0.009261415
-2.4926436 -0.9389242 0.010387843
-2.492976 -0.86960536 0.011701784
-2.493417 -0.80028456 0.013262561
-2.4939547 -0.7309616 0.0151183745
-2.494633 -0.6616325 0.01725577
-2.4954765 -0.5922948 0.0196177
-2.4965148 -0.52294236 0.022175724
-2.497678 -0.45357737 0.02484617
-2.498865 -0.38420722 0.027494112
-2.4999943 -0.31483608 0.03001811
-2.5010211 -0.24546489 0.032368455
-2.5019388 -0.17609395 0.03453421
-2.5027478 -0.10672286 0.03651978
-2.5034437 -0.037348155 0.038334843
-2.5040412 0.032042045 0.040015846
-2.5045798 0.10147419 0.04162121
-2.5051 0.17095824 0.043194156
-2.5056 0.24049318 0.044713702
-2.5060704 0.3100742 0.04615241
-2.5065014 0.37969723 0.047488574
-2.5068817 0.44935295 0.04870073
-2.5071957 0.5190264 0.049770657
-2.5074303 0.5887017 0.050687347
-2.5075765 0.6583642 0.051448647
-2.5076296 0.72800326 0.05206075
-2.507595 0.79761314 0.052535743
-2.507484 0.8671907 0.052886937
-2.5073142 0.93673414 0.053125024
-2.5071082 1.0062451 0.05325993
-2.5068896 1.0757277 0.053301383
-2.5066795 1.1451887 0.053257484
-2.5064902 1.2146356 0.05313428
-2.5063267 1.284077 0.052936327
-2.5061862 1.3535213 0.05266709
-2.5060644 1.4229779 0.052328642
-2.5059588 1.4924555 0.05192109
-2.505873 1.5619622 0.05144216
-2.5058181 1.6315048 0.05088773
-2.5058086 1.701086 0.050252922
-2.5058558 1.7707058 0.049530253
-2.505926 1.8403438 0.048622478
-2.505988 1.9099766 0.047527064
-2.506073 1.9796146 0.04640708
-2.5061948 2.049262 0.0453027
-2.5063689 2.1189215 0.044197354
-2.5065808 2.1885846 0.04304131
-2.506844 2.258254 0.041852657
-2.5071442 2.3279254 0.040613953
-2.5074484 2.3975878 0.039308343
-2.5077033 2.4672298 0.03792174
-2.50792 2.5368533 0.03643023
-2.5079117 2.6064255 0.034785215
-2.507719 2.6759763 0.032986883
-2.5074017 2.745526 0.031020213
-2.5069375 2.8150792 0.028851952
-2.5063043 2.8846374 0.026456764
-2.505484 2.9542005 0.02383566
-2.5044756 3.0237706 0.02104507
-2.3955693 -3.0199714 0
-2.3955975 -2.9505618 0.0004113961
-2.3957293 -2.8812206 0.0020066262
-2.3958862 -2.8119044 0.003803894
-2.3960266 -2.7425828 0.005282883
-2.3961587 -2.6732492 0.0063214004
-2.3968854 -2.6039298 0.008330274
-2.3977363 -2.5345962 0.010674365
-2.3985307 -2.4652474 0.012875414
-2.3992357 -2.395887 0.014799413
-2.399831 -2.3265195 0.016360046
-2.4003057 -2.2571437 0.017513365
-2.4006395 -2.1877518 0.018183896
-2.4008327 -2.1183138 0.018370623
-2.4008825 -2.0487862 0.01808375
-2.4007537 -1.9792298 0.017304152
-2.4004545 -1.9096453 0.01617484
-2.4000566 -1.8399649 0.015174917
-2.3996294 -1.7703365 0.014132077
-2.3993526 -1.7007889 0.013186305
-2.3991456 -1.6313379 0.01210828
-2.3989544 -1.5619916 0.010850308
-2.3987713 -1.4927477 0.009540539
-2.3986068 -1.4235976 0.008407922
-2.398475 -1.3545167 0.0076839696
-2.398388 -1.2854416 0.007468035
-2.3983753 -1.2162751 0.00792556
-2.3984308 -1.1470034 0.008955314
-2.3985205 -1.0776967 0.010187543
-2.3986423 -1.0083897 0.011473999
-2.3988862 -0.93907785 0.012963906
-2.399282 -0.8697534 0.014813003
-2.3997974 -0.8004257 0.016994571
-2.400404 -0.73110247 0.01941055
-2.4011347 -0.66177905 0.022014035
-2.4020193 -0.59245145 0.024748424
-2.4030595 -0.5231156 0.02754897
-2.404192 -0.45377204 0.030333852
-2.4053307 -0.38442358 0.033009104
-2.4064043 -0.315072 0.03550305
-2.4073696 -0.24572001 0.03776894
-2.4082196 -0.17636892 0.039799806
-2.408961 -0.10701723 0.041615825
-2.4095984 -0.037659425 0.043250557
-2.4101486 0.03171791 0.04475883
-2.410646 0.10114103 0.046189535
-2.4111235 0.17061733 0.047604773
-2.4115803 0.24014458 0.04898229
-2.4120073 0.30971637 0.050289746
-2.4123971 0.3793273 0.051501308
-2.41274 0.44896874 0.052595735
-2.4130228 0.5186277 0.05355729
-2.4132338 0.58828884 0.05437704
-2.4133608 0.6579383 0.055053573
-2.4133995 0.72756535 0.055592354
-2.413352 0.79716355 0.05600369
-2.413229 0.8667293 0.056299184
-2.413047 0.9362616 0.056488827
-2.4128277 1.0057604 0.056580856
-2.4125943 1.0752301 0.056583907
-2.4123657 1.1446763 0.056505527
-2.4121537 1.214107 0.056351606
-2.4119632 1.2835311 0.05612572
-2.4117897 1.3529581 0.05582135
-2.4116266 1.4223974 0.055422504
-2.4114773 1.4918603 0.054943584
-2.411356 1.5613554 0.05439653
-2.4112768 1.6308885 0.053794723
-2.4112496 1.700462 0.053099036
-2.4112778 1.7700735 0.052274175
-2.411351 1.8397121 0.05133015
-2.4114566 1.9093678 0.05031485
-2.4116054 1.9790422 0.049280763
-2.4118137 2.048739 0.04825281
-2.4121058 2.1184647 0.047236986
-2.412505 2.1882224 0.046211228
-2.4129205 2.2579756 0.045041915
-2.4133372 2.3277225 0.0437924
-2.4137428 2.3974607 0.042460978
-2.4141533 2.4671936 0.041029032
-2.4143631 2.5368667 0.039410897
-2.4143934 2.606503 0.03762683
-2.4143038 2.676127 0.0356819
-2.4140713 2.7457411 0.033546917
-2.4136698 2.8153465 0.031194849
-2.4130733 2.8849428 0.028609091
-2.4122593 2.95453 0.025799861
-2.4112246 3.0241108 0.022829833
-2.3016255 -3.0199714 0
-2.3016849 -2.950582 0.0007049009
-2.3018649 -2.8812819 0.002680153
-2.302049 -2.8119934 0.0046780533
-2.3022058 -2.742691 0.0062729274
-2.3023477 -2.6733751 0.007373296
-2.3029628 -2.6040704 0.009104791
-2.3038142 -2.534748 0.011363373
-2.3045924 -2.4654078 0.013475538
-2.305274 -2.396054 0.01532279
-2.305844 -2.3266912 0.01680773
-2.306291 -2.2573192 0.017889667
-2.3066022 -2.187937 0.01851728
-2.3067596 -2.11854 0.018639097
-2.3067489 -2.0491185 0.018224353
-2.3065562 -1.979671 0.017267147
-2.3061757 -1.9101882 0.015827509
-2.3056443 -1.8406591 0.01414475
-2.3051066 -1.7711005 0.012620935
-2.304894 -1.7015262 0.011730478
-2.3047917 -1.6320115 0.010823234
-2.3046787 -1.5626012 0.009655162
-2.3045578 -1.4933022 0.008405004
-2.3044615 -1.4240968 0.007478376
-2.3044233 -1.3549241 0.0073631993
-2.304446 -1.285707 0.008093644
-2.3045096 -1.216437 0.009338368
-2.304602 -1.1471399 0.010807943
-2.3047185 -1.0778415 0.01234723
-2.3048825 -1.008541 0.014003954
-2.305184 -0.93922377 0.016017972
-2.3056405 -0.8698962 0.01844528
-2.306213 -0.8005709 0.021162428
-2.3068688 -0.73125386 0.024044512
-2.3076282 -0.66194063 0.027016986
-2.3085196 -0.592626 0.030009057
-2.3095312 -0.52330625 0.03294372
-2.3106117 -0.45397934 0.035756618
-2.3116891 -0.384645 0.038390074
-2.3126984 -0.31530568 0.040791124
-2.3135996 -0.24596532 0.04292401
-2.3143835 -0.17662585 0.04479022
-2.315061 -0.10728528 0.046422545
-2.3156445 -0.037936974 0.04787018
-2.316154 0.03143267 0.049196955
-2.3166168 0.10084806 0.05043984
-2.3170583 0.17031536 0.051677074
-2.3174787 0.23983234 0.05289229
-2.3178694 0.3093921 0.054053303
-2.318224 0.37898794 0.055132005
-2.3185349 0.44861165 0.056106295
-2.31879 0.5182514 0.056961168
-2.3189769 0.5878935 0.057688314
-2.3190844 0.6575245 0.058285955
-2.3191059 0.72713363 0.058758076
-2.3190432 0.7967144 0.059112754
-2.3189046 0.86626315 0.0593596
-2.318707 0.9357787 0.05950622
-2.31847 1.0052587 0.05951527
-2.318221 1.0747066 0.059386183
-2.3179722 1.1441324 0.059200864
-2.3177288 1.2135444 0.05897476
-2.3174982 1.2829502 0.058685787
-2.3172808 1.3523594 0.05834789
-2.3170786 1.4217824 0.057945576
-2.3169 1.49123 0.057476234
-2.3167574 1.5607121 0.056938153
-2.316666 1.6302361 0.056328654
-2.3166342 1.6998054 0.055635944
-2.316662 1.7694163 0.054848965
-2.316745 1.8390626 0.05397481
-2.3168802 1.9087386 0.05304389
-2.3170733 1.9784443 0.052098136
-2.3173416 2.0481842 0.05115522
-2.3177116 2.1179647 0.050224297
-2.3182137 2.1877935 0.049292438
-2.318723 2.2576184 0.048177212
-2.319227 2.327439 0.04694781
-2.3197727 2.3972692 0.045624215
-2.3201923 2.4670548 0.044099353
-2.3204558 2.5367985 0.042387582
-2.3206158 2.6065257 0.040514912
-2.3206456 2.6762366 0.038453683
-2.3205163 2.7459297 0.03617637
-2.3201957 2.8156013 0.033660427
-2.3196518 2.885248 0.030896468
-2.3188593 2.954868 0.0279032
-2.3178127 3.0244653 0.024750194
-2.2076817 -3.0199714 2.3839511E-06
-2.2077866 -2.9506168 0.0010493224
-2.2080114 -2.8813598 0.003342732
-2.2082195 -2.8120978 0.00551985
-2.20839 -2.7428124 0.0072457646
-2.2085502 -2.673513 0.0084486455
-2.209003 -2.6042213 0.009882171
-2.20986 -2.5349028 0.012122589
-2.210637 -2.4655619 0.014196782
-2.2112887 -2.3962064 0.015951145
-2.2118268 -2.3268404 0.0173622
-2.2122495 -2.2574627 0.018403577
-2.212541 -2.1880727 0.019010248
-2.212688 -2.118667 0.019145403
-2.212677 -2.0492377 0.018784665
-2.2125044 -1.9797759 0.017953208
-2.2121499 -1.9102749 0.016667375
-2.2116313 -1.8407394 0.015058135
-2.2111204 -1.7712071 0.0135150505
-2.2108831 -1.7017128 0.012368432
-2.2107663 -1.6322534 0.011254397
-2.2106674 -1.5628414 0.010057557
-2.210585 -1.4934938 0.008973251
-2.2105434 -1.4242188 0.008403106
-2.2105563 -1.3549932 0.008691538
-2.2106085 -1.2857761 0.009698564
-2.2106888 -1.2165388 0.011137648
-2.2107973 -1.1472746 0.012820712
-2.2109418 -1.0779954 0.014651406
-2.211157 -1.0086989 0.0167529
-2.2115047 -0.9393845 0.01928706
-2.2119994 -0.87006485 0.022206564
-2.2126033 -0.8007501 0.025357617
-2.2132843 -0.73144376 0.028600067
-2.2140455 -0.6621421 0.031829275
-2.2149162 -0.59283847 0.034969095
-2.2158823 -0.52352846 0.03795221
-2.2169027 -0.45420843 0.04073644
-2.2179182 -0.38487813 0.043286204
-2.2188678 -0.3155413 0.045563594
-2.2197134 -0.24620278 0.047548085
-2.2204454 -0.17686488 0.04925159
-2.221076 -0.10752557 0.050714873
-2.2216222 -0.038177818 0.051995166
-2.222105 0.031191053 0.053159133
-2.2225463 0.10060283 0.054232147
-2.222964 0.17006291 0.055301737
-2.2233589 0.23956972 0.056360297
-2.223724 0.30911648 0.0573798
-2.2240524 0.3786956 0.05833237
-2.224337 0.44829896 0.0591956
-2.224568 0.5179158 0.059954282
-2.224732 0.5875338 0.06059996
-2.224818 0.6571403 0.061129898
-2.2248192 0.72672594 0.06152947
-2.2247388 0.7962835 0.061747584
-2.2245908 0.86580753 0.06184015
-2.224388 0.9352975 0.061868183
-2.2241445 1.004755 0.061826404
-2.2238772 1.0741841 0.061710037
-2.2235982 1.1435902 0.061541684
-2.2233152 1.2129807 0.061332628
-2.223035 1.2823634 0.061077967
-2.2227666 1.3517481 0.06076318
-2.2225142 1.4211454 0.06039269
-2.2222898 1.4905685 0.059956584
-2.2221112 1.5600301 0.05944432
-2.2219994 1.6295428 0.058848448
-2.2219691 1.699113 0.05816016
-2.2220054 1.76873 0.05739963
-2.2220986 1.8383871 0.056584377
-2.22225 1.9080807 0.055733953
-2.2224655 1.9778118 0.05487432
-2.222764 2.047586 0.054017507
-2.2231693 2.1174104 0.05317054
-2.2237 2.1872878 0.05230063
-2.2242484 2.2571704 0.051233668
-2.224855 2.327074 0.05005993
-2.2254097 2.3969529 0.048665456
-2.2258787 2.4668055 0.047087476
-2.2262733 2.5366466 0.045350276
-2.2265658 2.6064737 0.04342534
-2.2267234 2.6762836 0.04128275
-2.2267084 2.7460697 0.03889507
-2.226481 2.8158236 0.036242608
-2.2260027 2.885536 0.03332127
-2.225245 2.9552011 0.030156028
-2.2242014 3.0248241 0.026821349
-2.1137402 -3.019973 1.9947476E-05
-2.113905 -2.950672 0.0014588796
-2.114169 -2.881456 0.0039923415
-2.1143956 -2.8122168 0.0063112304
-2.1145754 -2.742945 0.008156837
-2.114751 -2.6736581 0.009505037
-2.115115 -2.6043847 0.010889614
-2.1158936 -2.5350587 0.013019406
-2.116661 -2.4657052 0.01509086
-2.117301 -2.3963387 0.016828677
-2.117823 -2.3269618 0.018224278
-2.118221 -2.2575738 0.019238438
-2.1185007 -2.1881714 0.019865012
-2.1186526 -2.1187494 0.020077415
-2.118658 -2.0493011 0.019835766
-2.1185048 -1.9798179 0.019125605
-2.118173 -1.910297 0.01795495
-2.1176832 -1.8407379 0.016428465
-2.1172183 -1.7711871 0.014911322
-2.11702 -1.7016938 0.013805642
-2.1169078 -1.6322365 0.012733293
-2.1168122 -1.5628195 0.011650812
-2.1167421 -1.4934602 0.0107703945
-2.116716 -1.4241757 0.010397067
-2.1167414 -1.3549637 0.010754105
-2.116804 -1.2857893 0.011759502
-2.1168933 -1.2166106 0.013213513
-2.1170137 -1.1474034 0.014983916
-2.1171844 -1.0781587 0.017064009
-2.1174395 -1.0088795 0.019580897
-2.1178126 -0.93958074 0.022555552
-2.118322 -0.87027746 0.025872437
-2.1189337 -0.8009775 0.029357027
-2.1196136 -0.7316826 0.032848883
-2.120357 -0.6623892 0.0362276
-2.1211886 -0.5930906 0.039423037
-2.1221006 -0.5237817 0.042387795
-2.1230605 -0.45445904 0.045098454
-2.1240172 -0.3851234 0.04753431
-2.1249166 -0.31577983 0.049673185
-2.125723 -0.24643384 0.051509466
-2.126424 -0.17708796 0.053063508
-2.1270318 -0.107740365 0.05438043
-2.1275647 -0.038384102 0.05552126
-2.1280413 0.03099194 0.056552213
-2.128478 0.1004064 0.057488836
-2.1288881 0.16986388 0.05841978
-2.129272 0.23936333 0.05934511
-2.129624 0.30889827 0.06024262
-2.1299365 0.37846068 0.061086692
-2.1302028 0.44804233 0.061855488
-2.1304157 0.5176377 0.062493406
-2.1305652 0.5872358 0.06295811
-2.130636 0.6568168 0.063320905
-2.1306233 0.7263714 0.063613236
-2.13053 0.7958963 0.063818425
-2.130366 0.8653893 0.06393933
-2.1301415 0.9348502 0.06399957
-2.129869 1.0042802 0.06400098
-2.129566 1.0736829 0.06393729
-2.129244 1.1430624 0.06381219
-2.1289127 1.2124242 0.06363616
-2.1285775 1.2817751 0.06341926
-2.1282482 1.3511251 0.06314441
-2.1279318 1.4204857 0.06281622
-2.127643 1.4898719 0.062424783
-2.1274052 1.5593013 0.061952613
-2.1272619 1.628798 0.061374936
-2.1272514 1.6983798 0.0606693
-2.127309 1.768012 0.059909195
-2.1274118 1.8376818 0.059134774
-2.1275623 1.9073874 0.05836524
-2.1277754 1.9771355 0.057596914
-2.128071 2.0469332 0.056827538
-2.1284697 2.1167884 0.056053776
-2.128958 2.1866887 0.055170007
-2.1295342 2.256628 0.05416792
-2.1301572 2.3265789 0.052935205
-2.130765 2.3965254 0.051536724
-2.131336 2.4664686 0.049989633
-2.1318445 2.5364063 0.048263814
-2.132258 2.6063359 0.046325255
-2.1325376 2.6762516 0.04413972
-2.132636 2.7461429 0.041677766
-2.1325054 2.815994 0.038920775
-2.1320994 2.8857884 0.03586844
-2.1313863 2.955515 0.032550175
-2.1303601 3.0251763 0.029042581
-2.0198042 -3.0199792 8.1566985E-05
-2.020045 -2.9507551 0.0019952962
-2.0203362 -2.8815725 0.0046334667
-2.0205746 -2.8123498 0.0070316447
-2.0207582 -2.7430851 0.008958934
-2.0209835 -2.6738164 0.010557163
-2.0213678 -2.6045377 0.012219874
-2.0219755 -2.535201 0.014174659
-2.0226746 -2.4658315 0.016141241
-2.0232706 -2.39645 0.017835692
-2.023785 -2.3270593 0.019265685
-2.0241818 -2.2576582 0.02033534
-2.024461 -2.188243 0.02102176
-2.0246162 -2.1188087 0.021301627
-2.024632 -2.0493476 0.021138418
-2.0245109 -1.9798534 0.020545488
-2.0242379 -1.9103228 0.019532464
-2.0237844 -1.8407487 0.018057104
-2.023367 -1.7711699 0.016508626
-2.0231764 -1.7016557 0.015398082
-2.0230687 -1.6321901 0.014429388
-2.022976 -1.5627699 0.013519597
-2.0229115 -1.4934103 0.012848735
-2.022894 -1.4241292 0.0126671055
-2.0229285 -1.354929 0.013124558
-2.0230029 -1.2857914 0.01413857
-2.0231035 -1.2166747 0.015568539
-2.023236 -1.1475337 0.017366586
-2.0234263 -1.0783424 0.019616196
-2.023704 -1.0091002 0.022433817
-2.0240855 -0.93982905 0.025731862
-2.0245876 -0.8705467 0.029332623
-2.0251846 -0.8012609 0.03303421
-2.0258431 -0.73197347 0.03666238
-2.0265534 -0.662682 0.040095706
-2.0273354 -0.59338087 0.043273564
-2.0281885 -0.5240647 0.04616854
-2.0290885 -0.45473126 0.048771884
-2.0299923 -0.38538256 0.051076043
-2.0308535 -0.31602436 0.053073384
-2.0316372 -0.24666262 0.0547699
-2.0323324 -0.17730007 0.056192245
-2.0329447 -0.10793509 0.05738816
-2.0334907 -0.038561393 0.058419816
-2.0339854 0.030830324 0.05935078
-2.034438 0.10025507 0.060189333
-2.0348592 0.16971648 0.061018296
-2.035249 0.23921332 0.061842628
-2.0356026 0.30874237 0.06262602
-2.0359185 0.3783033 0.06328216
-2.0361843 0.44787705 0.063847564
-2.0363863 0.517448 0.064359374
-2.036515 0.58700776 0.06480736
-2.0365636 0.6565483 0.06518988
-2.0365283 0.72606385 0.065511085
-2.0364108 0.7955511 0.06576623
-2.0362175 0.86500925 0.065949835
-2.0359576 0.9344373 0.066065826
-2.0356436 1.0038354 0.06612274
-2.0352914 1.0732063 0.06611226
-2.0349193 1.142553 0.06602674
-2.0345335 1.2118793 0.06588241
-2.0341368 1.2811902 0.06569933
-2.0337389 1.3504955 0.06546329
-2.033344 1.4198071 0.06517929
-2.0329669 1.4891413 0.06483388
-2.032631 1.558518 0.06441622
-2.032426 1.6279852 0.06386499
-2.0325136 1.6976181 0.063050486
-2.0326204 1.7672782 0.062247068
-2.0327175 1.8369527 0.06150635
-2.0328302 1.9066541 0.060819402
-2.032996 1.976401 0.06015693
-2.033251 2.0462074 0.05946613
-2.0336084 2.1160767 0.058691133
-2.0340736 2.186009 0.05784741
-2.0346909 2.2560036 0.056783024
-2.0353506 2.3260186 0.0555797
-2.036011 2.3960407 0.05424884
-2.0366485 2.4660654 0.052761592
-2.0372365 2.536092 0.05108187
-2.037741 2.606119 0.049168732
-2.038118 2.6761396 0.04698122
-2.0383134 2.7461405 0.044484917
-2.03827 2.8161 0.041659493
-2.037934 2.8859916 0.038506534
-2.0372694 2.9557958 0.035058808
-2.0362723 3.0255103 0.031393547
-1.9258934 -3.0200102 0.00030836865
-1.9262004 -2.9508653 0.0026350948
-1.9265074 -2.8817067 0.005263506
-1.9267511 -2.8124924 0.007653519
-1.9269364 -2.7432313 0.009616649
-1.927227 -2.6739705 0.011472386
-1.9276686 -2.6046677 0.013484904
-1.9281268 -2.535316 0.015401974
-1.9286956 -2.4659297 0.017294958
-1.9292713 -2.3965323 0.019014789
-1.9297556 -2.327129 0.020451643
-1.9301273 -2.257717 0.021546694
-1.9304038 -2.1882925 0.022296576
-1.9305863 -2.1188505 0.022686051
-1.9306474 -2.0493836 0.02266301
-1.9305508 -1.9798911 0.02219027
-1.9302969 -1.9103681 0.021268608
-1.9299368 -1.8408061 0.019950692
-1.9295868 -1.7712297 0.018447777
-1.9293247 -1.7016948 0.017157594
-1.9291872 -1.6322323 0.01628056
-1.9290893 -1.5628198 0.015591269
-1.9290265 -1.493467 0.015181099
-1.9290146 -1.4241933 0.015221683
-1.9290578 -1.3550055 0.015791966
-1.9291452 -1.2858922 0.016839338
-1.9292628 -1.2168185 0.018258668
-1.9294155 -1.1477349 0.020064363
-1.9296256 -1.0786 0.0224037
-1.9299166 -1.0094022 0.02537071
-1.9302965 -0.94016075 0.028832113
-1.9307767 -0.8708951 0.032564513
-1.9313412 -0.80161583 0.036345795
-1.9319631 -0.7323268 0.03999623
-1.932631 -0.6630276 0.04339798
-1.9333584 -0.59371436 0.046497792
-1.9341515 -0.5243825 0.049283117
-1.9349936 -0.45503044 0.051756635
-1.9358513 -0.3856614 0.05392175
-1.9366852 -0.31628126 0.055782046
-1.9374648 -0.24689597 0.057351943
-1.9381752 -0.17750844 0.05866297
-1.9388175 -0.108117424 0.05976438
-1.9394023 -0.03871756 0.060717165
-1.9399393 0.030698331 0.061580498
-1.9404287 0.100141294 0.062357876
-1.9408816 0.1696153 0.06311056
-1.9412938 0.23912808 0.06376946
-1.9416631 0.30866548 0.064369716
-1.9419851 0.37821183 0.06495698
-1.942248 0.44775793 0.06552027
-1.942441 0.5172949 0.066054225
-1.9425552 0.5868165 0.06654233
-1.9425844 0.6563177 0.06697506
-1.9425251 0.72579443 0.06734722
-1.9423788 0.79524404 0.06765578
-1.9421499 0.864666 0.06789264
-1.9418484 0.9340596 0.06805668
-1.9414841 1.0034233 0.06815795
-1.9410771 1.0727583 0.068176106
-1.9406582 1.1420687 0.06807978
-1.9402326 1.2113581 0.06790161
-1.9397975 1.2806321 0.0676695
-1.9393578 1.3499023 0.067389384
-1.938923 1.4191821 0.06706363
-1.9385066 1.4884875 0.066693276
-1.9381341 1.5578378 0.06627307
-1.9379627 1.627321 0.06571266
-1.937965 1.6969198 0.065051235
-1.9380192 1.7665621 0.064358965
-1.9380577 1.8362156 0.063708074
-1.9381013 1.9058949 0.063098304
-1.938216 1.975632 0.062462945
-1.9384226 2.0454388 0.06179283
-1.9387478 2.115327 0.061069004
-1.9392967 2.1853323 0.06015793
-1.9399298 2.2553847 0.059136037
-1.9405948 2.3254588 0.058012035
-1.941268 2.3955448 0.056762785
-1.9419273 2.4656386 0.05535609
-1.9425474 2.5357404 0.053750567
-1.9430957 2.6058507 0.05189799
-1.943527 2.6759658 0.04974884
-1.9437835 2.7460713 0.04726051
-1.9438012 2.8161411 0.04440703
-1.9435201 2.8861394 0.041188527
-1.9429 2.9560347 0.03763932
-1.9419378 3.025817 0.033836637
-1.8320314 -3.0201037 0.0008870203
-1.8323623 -2.9509957 0.003345102
-1.8326712 -2.8818471 0.0058838017
-1.8329158 -2.8126376 0.008154941
-1.833108 -2.7433786 0.010118065
-1.8334453 -2.674105 0.01217824
-1.8339063 -2.604776 0.014408307
-1.8343569 -2.5354018 0.01652151
-1.8347781 -2.4660022 0.018392393
-1.8352151 -2.396589 0.02007365
-1.835666 -2.3271735 0.021580651
-1.8360529 -2.2577536 0.022791212
-1.8363402 -2.1883287 0.023644999
-1.8365126 -2.1188948 0.024112308
-1.8365625 -2.049445 0.024178486
-1.836498 -1.979977 0.023870254
-1.8363435 -1.9104803 0.023190815
-1.8360888 -1.8409482 0.022093663
-1.8357686 -1.7714012 0.020667482
-1.8354396 -1.7018679 0.019227633
-1.8352497 -1.6324087 0.018358722
-1.835139 -1.5630102 0.01788027
-1.8350762 -1.4936724 0.017732965
-1.8350676 -1.4244086 0.018001545
-1.8351164 -1.3552293 0.018723655
-1.835214 -1.2861314 0.019836802
-1.8353482 -1.2170886 0.021278467
-1.8355218 -1.1480527 0.023108745
-1.8357509 -1.0789722 0.02548367
-1.8360493 -1.0098206 0.028468072
-1.8364202 -0.9406066 0.031924326
-1.8368691 -0.8713501 0.035621632
-1.8373907 -0.8020661 0.03933767
-1.8379667 -0.7327625 0.042895958
-1.8385863 -0.6634428 0.046183173
-1.8392587 -0.5941055 0.04914996
-1.8399932 -0.5247473 0.05179154
-1.840782 -0.45536757 0.05411794
-1.841601 -0.38596952 0.056139994
-1.8424182 -0.3165593 0.05786916
-1.8432068 -0.2471423 0.059325945
-1.8439498 -0.17772149 0.060545433
-1.8446428 -0.10829603 0.061576903
-1.845288 -0.03886186 0.062478047
-1.8458889 0.030586077 0.063302115
-1.8464355 0.10005466 0.0640493
-1.8469297 0.16955236 0.06470882
-1.847367 0.23907685 0.06527324
-1.8477602 0.3086106 0.065846115
-1.8481035 0.3781414 0.066459574
-1.8483799 0.44766298 0.06707745
-1.848576 0.5171703 0.06766397
-1.8486845 0.58665854 0.068202965
-1.8486995 0.65612406 0.06868245
-1.8486195 0.72556436 0.06909533
-1.8484472 0.79497814 0.069427006
-1.8481927 0.86436695 0.06964062
-1.8478765 0.9337318 0.0697312
-1.8475076 1.003069 0.06974476
-1.8470979 1.0723783 0.06969317
-1.8466578 1.141661 0.06958235
-1.8461956 1.210921 0.06941781
-1.8457187 1.2801657 0.06920394
-1.8452348 1.3494062 0.06894437
-1.8447545 1.4186565 0.0686415
-1.8443171 1.4879456 0.06827964
-1.8440557 1.5573572 0.067792594
-1.8438902 1.6268452 0.06725619
-1.8437785 1.6963822 0.066698864
-1.8436853 1.7659491 0.06614388
-1.8436056 1.8355455 0.06559693
-1.8435555 1.9051828 0.065054156
-1.8435771 1.9748871 0.0644947
-1.843759 2.0447052 0.063864
-1.844207 2.1146867 0.06307533
-1.8447564 2.184738 0.062206663
-1.8453639 2.254833 0.061258074
-1.8460033 2.3249555 0.060213957
-1.8466502 2.3950934 0.059050765
-1.847284 2.4652414 0.05773463
-1.8478826 2.5354009 0.056220546
-1.8484174 2.605576 0.054454103
-1.8488462 2.6757674 0.052377056
-1.849112 2.7459626 0.049936622
-1.849149 2.8161335 0.04709737
-1.848893 2.8862374 0.04385324
-1.8483016 2.9562292 0.040236145
-1.8473719 3.0260878 0.03632165
-1.7381792 -3.0202186 0.0015484645
-1.7385108 -2.9511254 0.003987321
-1.7388147 -2.8819802 0.006402352
-1.7390575 -2.8127716 0.008557616
-1.7392505 -2.7435133 0.010418563
-1.7396036 -2.6742198 0.012590041
-1.7400756 -2.6048646 0.015025256
-1.7405264 -2.5354695 0.017309373
-1.740934 -2.4660535 0.019349944
-1.7413132 -2.396632 0.021166531
-1.7416624 -2.3272147 0.02270663
-1.7419755 -2.257804 0.023968697
-1.7422354 -2.188394 0.02490801
-1.7424242 -2.118979 0.025496816
-1.7425281 -2.0495527 0.025748821
-1.7425337 -1.980111 0.025669461
-1.7424251 -1.9106444 0.025203612
-1.7421917 -1.8411483 0.024306182
-1.7418834 -1.7716442 0.023043415
-1.741541 -1.7021459 0.021619799
-1.741289 -1.6326983 0.020659829
-1.741155 -1.5633159 0.02034197
-1.7410889 -1.4939946 0.020451149
-1.7410808 -1.4247438 0.02094688
-1.7411312 -1.3555738 0.021823982
-1.7412335 -1.2864869 0.023028301
-1.74138 -1.2174655 0.024533514
