# .PCD v0.7 - Point Cloud Data file format
VERSION 0.7
FIELDS x y z
SIZE 4 4 4
TYPE F F F
COUNT 1 1 1
WIDTH 1018
HEIGHT 1
VIEWPOINT 0 0 0 1 0 0 0
POINTS 1018
DATA ascii
1 1 0.021806031
1.3826835 0.92387956 0.021806031
0.01921469 0.19509043 0.021806031
0.29289311 0.70710671 0.021806031
0.6173166 0.92387962 0.021806031
0.80490977 0.98078531 0.021806031
1 1 0.026806027
1 1 0.046806008
1.1950903 0.98078531 0.026806027
1.1950903 0.98078531 0.046806008
1.3826835 0.92387956 0.026806027
1.3826835 0.92387956 0.046806008
1.5555702 0.83146966 0.026806027
1.5555702 0.83146966 0.046806008
1.7071068 0.70710683 0.026806027
1.7071068 0.70710683 0.046806008
1.8314697 0.55557024 0.026806027
1.8314697 0.55557024 0.046806008
1.9238796 0.38268343 0.046806008
1.9807854 0.19509035 0.026806027
1.9807854 0.19509035 0.046806008
2 -4.3711392e-08 0.026806027
2 -4.3711392e-08 0.046806008
1.9807854 -0.19509032 0.046806008
1.9238796 -0.3826834 0.026806027
1.9238796 -0.3826834 0.046806008
1.8314698 -0.55557019 0.026806027
1.8314698 -0.55557019 0.046806008
1.7071068 -0.70710683 0.026806027
1.7071068 -0.70710683 0.046806008
1.5555701 -0.83146971 0.026806027
1.5555701 -0.83146971 0.046806008
1.3826835 -0.92387956 0.046806008
1.1950903 -0.98078531 0.046806008
0.99999994 -1 0.046806008
0.6173166 -0.92387956 0.046806008
0.4444297 -0.8314696 0.026806027
0.4444297 -0.8314696 0.046806008
0.29289323 -0.70710683 0.026806027
0.29289323 -0.70710683 0.046806008
0.16853046 -0.55557042 0.026806027
0.16853046 -0.55557042 0.046806008
0.076120436 -0.38268358 0.046806008
0.01921469 -0.1950904 0.026806027
0.01921469 -0.1950904 0.046806008
0 1.1924882e-08 0.046806008
0.01921469 0.19509043 0.026806027
0.01921469 0.19509043 0.046806008
0.076120496 0.3826836 0.026806027
0.076120496 0.3826836 0.046806008
0.16853023 0.55557007 0.046806008
0.29289311 0.70710671 0.026806027
0.29289311 0.70710671 0.046806008
0.4444297 0.83146966 0.046806008
0.6173166 0.92387962 0.026806027
0.6173166 0.92387962 0.046806008
0.80490977 0.98078531 0.026806027
0.80490977 0.98078531 0.046806008
1 1 0.051806003
1 1 0.071805984
1.1950903 0.98078531 0.051806003
1.1950903 0.98078531 0.071805984
1.3826835 0.92387956 0.051806003
1.3826835 0.92387956 0.071805984
1.5555702 0.83146966 0.051806003
1.5555702 0.83146966 0.071805984
1.7071068 0.70710683 0.051806003
1.7071068 0.70710683 0.071805984
1.8314697 0.55557024 0.051806003
1.8314697 0.55557024 0.071805984
1.9238796 0.38268343 0.051806003
1.9238796 0.38268343 0.071805984
1.9807854 0.19509035 0.051806003
1.9807854 0.19509035 0.071805984
2 -4.3711392e-08 0.051806003
2 -4.3711392e-08 0.071805984
1.9807854 -0.19509032 0.051806003
1.9807854 -0.19509032 0.071805984
1.9238796 -0.3826834 0.051806003
1.9238796 -0.3826834 0.071805984
1.8314698 -0.55557019 0.051806003
1.8314698 -0.55557019 0.071805984
1.7071068 -0.70710683 0.051806003
1.7071068 -0.70710683 0.071805984
1.5555701 -0.83146971 0.051806003
1.5555701 -0.83146971 0.071805984
1.3826835 -0.92387956 0.051806003
1.3826835 -0.92387956 0.071805984
1.1950903 -0.98078531 0.051806003
1.1950903 -0.98078531 0.071805984
0.99999994 -1 0.051806003
0.99999994 -1 0.071805984
0.80490977 -0.98078531 0.051806003
0.80490977 -0.98078531 0.071805984
0.6173166 -0.92387956 0.051806003
0.6173166 -0.92387956 0.071805984
0.4444297 -0.8314696 0.051806003
0.4444297 -0.8314696 0.071805984
0.29289323 -0.70710683 0.051806003
0.29289323 -0.70710683 0.071805984
0.16853046 -0.55557042 0.051806003
0.16853046 -0.55557042 0.071805984
0.076120436 -0.38268358 0.051806003
0.076120436 -0.38268358 0.071805984
0.01921469 -0.1950904 0.051806003
0.01921469 -0.1950904 0.071805984
0 1.1924882e-08 0.051806003
0 1.1924882e-08 0.071805984
0.01921469 0.19509043 0.051806003
0.01921469 0.19509043 0.071805984
0.076120496 0.3826836 0.051806003
0.076120496 0.3826836 0.071805984
0.16853023 0.55557007 0.051806003
0.16853023 0.55557007 0.071805984
0.29289311 0.70710671 0.051806003
0.29289311 0.70710671 0.071805984
0.4444297 0.83146966 0.051806003
0.4444297 0.83146966 0.071805984
0.6173166 0.92387962 0.051806003
0.6173166 0.92387962 0.071805984
0.80490977 0.98078531 0.051806003
0.80490977 0.98078531 0.071805984
1 1 0.076806098
1 1 0.096806079
1.1950903 0.98078531 0.076806098
1.1950903 0.98078531 0.096806079
1.3826835 0.92387956 0.076806098
1.3826835 0.92387956 0.096806079
1.5555702 0.83146966 0.076806098
1.5555702 0.83146966 0.096806079
1.7071068 0.70710683 0.076806098
1.7071068 0.70710683 0.096806079
1.8314697 0.55557024 0.076806098
1.8314697 0.55557024 0.096806079
1.9238796 0.38268343 0.076806098
1.9238796 0.38268343 0.096806079
1.9807854 0.19509035 0.076806098
1.9807854 0.19509035 0.096806079
2 -4.3711392e-08 0.076806098
2 -4.3711392e-08 0.096806079
1.9807854 -0.19509032 0.076806098
1.9807854 -0.19509032 0.096806079
1.9238796 -0.3826834 0.076806098
1.9238796 -0.3826834 0.096806079
1.8314698 -0.55557019 0.076806098
1.8314698 -0.55557019 0.096806079
1.7071068 -0.70710683 0.076806098
1.7071068 -0.70710683 0.096806079
1.5555701 -0.83146971 0.076806098
1.5555701 -0.83146971 0.096806079
1.3826835 -0.92387956 0.076806098
1.3826835 -0.92387956 0.096806079
1.1950903 -0.98078531 0.076806098
1.1950903 -0.98078531 0.096806079
0.99999994 -1 0.076806098
0.99999994 -1 0.096806079
0.80490977 -0.98078531 0.076806098
0.80490977 -0.98078531 0.096806079
0.6173166 -0.92387956 0.076806098
0.6173166 -0.92387956 0.096806079
0.4444297 -0.8314696 0.076806098
0.4444297 -0.8314696 0.096806079
0.29289323 -0.70710683 0.076806098
0.29289323 -0.70710683 0.096806079
0.16853046 -0.55557042 0.076806098
0.16853046 -0.55557042 0.096806079
0.076120436 -0.38268358 0.076806098
0.076120436 -0.38268358 0.096806079
0.01921469 -0.1950904 0.076806098
0.01921469 -0.1950904 0.096806079
0 1.1924882e-08 0.076806098
0 1.1924882e-08 0.096806079
0.01921469 0.19509043 0.076806098
0.01921469 0.19509043 0.096806079
0.076120496 0.3826836 0.076806098
0.076120496 0.3826836 0.096806079
0.16853023 0.55557007 0.076806098
0.16853023 0.55557007 0.096806079
0.29289311 0.70710671 0.076806098
0.29289311 0.70710671 0.096806079
0.4444297 0.83146966 0.076806098
0.4444297 0.83146966 0.096806079
0.6173166 0.92387962 0.076806098
0.6173166 0.92387962 0.096806079
0.80490977 0.98078531 0.076806098
0.80490977 0.98078531 0.096806079
1 1 0.10180607
1 1 0.12180606
1.1950903 0.98078531 0.10180607
1.1950903 0.98078531 0.12180606
1.3826835 0.92387956 0.10180607
1.3826835 0.92387956 0.12180606
1.5555702 0.83146966 0.10180607
1.5555702 0.83146966 0.12180606
1.7071068 0.70710683 0.10180607
1.7071068 0.70710683 0.12180606
1.8314697 0.55557024 0.10180607
1.8314697 0.55557024 0.12180606
1.9238796 0.38268343 0.10180607
1.9238796 0.38268343 0.12180606
1.9807854 0.19509035 0.10180607
1.9807854 0.19509035 0.12180606
2 -4.3711392e-08 0.10180607
2 -4.3711392e-08 0.12180606
1.9807854 -0.19509032 0.10180607
1.9807854 -0.19509032 0.12180606
1.9238796 -0.3826834 0.10180607
1.9238796 -0.3826834 0.12180606
1.8314698 -0.55557019 0.10180607
1.8314698 -0.55557019 0.12180606
1.7071068 -0.70710683 0.10180607
1.7071068 -0.70710683 0.12180606
1.5555701 -0.83146971 0.10180607
1.5555701 -0.83146971 0.12180606
1.3826835 -0.92387956 0.10180607
1.3826835 -0.92387956 0.12180606
1.1950903 -0.98078531 0.10180607
1.1950903 -0.98078531 0.12180606
0.99999994 -1 0.10180607
0.99999994 -1 0.12180606
0.80490977 -0.98078531 0.10180607
0.80490977 -0.98078531 0.12180606
0.6173166 -0.92387956 0.10180607
0.6173166 -0.92387956 0.12180606
0.4444297 -0.8314696 0.10180607
0.4444297 -0.8314696 0.12180606
0.29289323 -0.70710683 0.10180607
0.29289323 -0.70710683 0.12180606
0.16853046 -0.55557042 0.10180607
0.16853046 -0.55557042 0.12180606
0.076120436 -0.38268358 0.10180607
0.076120436 -0.38268358 0.12180606
0.01921469 -0.1950904 0.10180607
0.01921469 -0.1950904 0.12180606
0 1.1924882e-08 0.10180607
0 1.1924882e-08 0.12180606
0.01921469 0.19509043 0.10180607
0.01921469 0.19509043 0.12180606
0.076120496 0.3826836 0.10180607
0.076120496 0.3826836 0.12180606
0.16853023 0.55557007 0.10180607
0.16853023 0.55557007 0.12180606
0.29289311 0.70710671 0.10180607
0.29289311 0.70710671 0.12180606
0.4444297 0.83146966 0.10180607
0.4444297 0.83146966 0.12180606
0.6173166 0.92387962 0.10180607
0.6173166 0.92387962 0.12180606
0.80490977 0.98078531 0.10180607
0.80490977 0.98078531 0.12180606
1 1 0.12680605
1 1 0.14680603
1.1950903 0.98078531 0.12680605
1.1950903 0.98078531 0.14680603
1.3826835 0.92387956 0.12680605
1.3826835 0.92387956 0.14680603
1.5555702 0.83146966 0.12680605
1.5555702 0.83146966 0.14680603
1.7071068 0.70710683 0.12680605
1.7071068 0.70710683 0.14680603
1.8314697 0.55557024 0.12680605
1.8314697 0.55557024 0.14680603
1.9238796 0.38268343 0.12680605
1.9238796 0.38268343 0.14680603
1.9807854 0.19509035 0.12680605
1.9807854 0.19509035 0.14680603
2 -4.3711392e-08 0.12680605
2 -4.3711392e-08 0.14680603
1.9807854 -0.19509032 0.12680605
1.9807854 -0.19509032 0.14680603
1.9238796 -0.3826834 0.12680605
1.9238796 -0.3826834 0.14680603
1.8314698 -0.55557019 0.12680605
1.8314698 -0.55557019 0.14680603
1.7071068 -0.70710683 0.12680605
1.7071068 -0.70710683 0.14680603
1.5555701 -0.83146971 0.12680605
1.5555701 -0.83146971 0.14680603
1.3826835 -0.92387956 0.12680605
1.3826835 -0.92387956 0.14680603
1.1950903 -0.98078531 0.12680605
1.1950903 -0.98078531 0.14680603
0.99999994 -1 0.12680605
0.99999994 -1 0.14680603
0.80490977 -0.98078531 0.12680605
0.80490977 -0.98078531 0.14680603
0.6173166 -0.92387956 0.12680605
0.6173166 -0.92387956 0.14680603
0.4444297 -0.8314696 0.12680605
0.4444297 -0.8314696 0.14680603
0.29289323 -0.70710683 0.12680605
0.29289323 -0.70710683 0.14680603
0.16853046 -0.55557042 0.12680605
0.16853046 -0.55557042 0.14680603
0.076120436 -0.38268358 0.12680605
0.076120436 -0.38268358 0.14680603
0.01921469 -0.1950904 0.12680605
0.01921469 -0.1950904 0.14680603
0 1.1924882e-08 0.12680605
0 1.1924882e-08 0.14680603
0.01921469 0.19509043 0.12680605
0.01921469 0.19509043 0.14680603
0.076120496 0.3826836 0.12680605
0.076120496 0.3826836 0.14680603
0.16853023 0.55557007 0.12680605
0.16853023 0.55557007 0.14680603
0.29289311 0.70710671 0.12680605
0.29289311 0.70710671 0.14680603
0.4444297 0.83146966 0.12680605
0.4444297 0.83146966 0.14680603
0.6173166 0.92387962 0.12680605
0.6173166 0.92387962 0.14680603
0.80490977 0.98078531 0.12680605
0.80490977 0.98078531 0.14680603
1 1 0.15180603
1 1 0.17180602
1.1950903 0.98078531 0.15180603
1.1950903 0.98078531 0.17180602
1.3826835 0.92387956 0.15180603
1.3826835 0.92387956 0.17180602
1.5555702 0.83146966 0.15180603
1.5555702 0.83146966 0.17180602
1.7071068 0.70710683 0.15180603
1.7071068 0.70710683 0.17180602
1.8314697 0.55557024 0.15180603
1.8314697 0.55557024 0.17180602
1.9238796 0.38268343 0.15180603
1.9238796 0.38268343 0.17180602
1.9807854 0.19509035 0.15180603
1.9807854 0.19509035 0.17180602
2 -4.3711392e-08 0.15180603
2 -4.3711392e-08 0.17180602
1.9807854 -0.19509032 0.15180603
1.9807854 -0.19509032 0.17180602
1.9238796 -0.3826834 0.15180603
1.9238796 -0.3826834 0.17180602
1.8314698 -0.55557019 0.15180603
1.8314698 -0.55557019 0.17180602
1.7071068 -0.70710683 0.15180603
1.7071068 -0.70710683 0.17180602
1.5555701 -0.83146971 0.15180603
1.5555701 -0.83146971 0.17180602
1.3826835 -0.92387956 0.15180603
1.3826835 -0.92387956 0.17180602
1.1950903 -0.98078531 0.15180603
1.1950903 -0.98078531 0.17180602
0.99999994 -1 0.15180603
0.99999994 -1 0.17180602
0.80490977 -0.98078531 0.15180603
0.80490977 -0.98078531 0.17180602
0.6173166 -0.92387956 0.15180603
0.6173166 -0.92387956 0.17180602
0.4444297 -0.8314696 0.15180603
0.4444297 -0.8314696 0.17180602
0.29289323 -0.70710683 0.15180603
0.29289323 -0.70710683 0.17180602
0.16853046 -0.55557042 0.15180603
0.16853046 -0.55557042 0.17180602
0.076120436 -0.38268358 0.15180603
0.076120436 -0.38268358 0.17180602
0.01921469 -0.1950904 0.15180603
0.01921469 -0.1950904 0.17180602
0 1.1924882e-08 0.15180603
0 1.1924882e-08 0.17180602
0.01921469 0.19509043 0.15180603
0.01921469 0.19509043 0.17180602
0.076120496 0.3826836 0.15180603
0.076120496 0.3826836 0.17180602
0.16853023 0.55557007 0.15180603
0.16853023 0.55557007 0.17180602
0.29289311 0.70710671 0.15180603
0.29289311 0.70710671 0.17180602
0.4444297 0.83146966 0.15180603
0.4444297 0.83146966 0.17180602
0.6173166 0.92387962 0.15180603
0.6173166 0.92387962 0.17180602
0.80490977 0.98078531 0.15180603
0.80490977 0.98078531 0.17180602
1 1 0.17680599
1 1 0.196806
1.1950903 0.98078531 0.17680599
1.1950903 0.98078531 0.196806
1.3826835 0.92387956 0.17680599
1.3826835 0.92387956 0.196806
1.5555702 0.83146966 0.17680599
1.5555702 0.83146966 0.196806
1.7071068 0.70710683 0.17680599
1.7071068 0.70710683 0.196806
1.8314697 0.55557024 0.17680599
1.8314697 0.55557024 0.196806
1.9238796 0.38268343 0.17680599
1.9238796 0.38268343 0.196806
1.9807854 0.19509035 0.17680599
1.9807854 0.19509035 0.196806
2 -4.3711392e-08 0.17680599
2 -4.3711392e-08 0.196806
1.9807854 -0.19509032 0.17680599
1.9807854 -0.19509032 0.196806
1.9238796 -0.3826834 0.17680599
1.9238796 -0.3826834 0.196806
1.8314698 -0.55557019 0.17680599
1.8314698 -0.55557019 0.196806
1.7071068 -0.70710683 0.17680599
1.7071068 -0.70710683 0.196806
1.5555701 -0.83146971 0.17680599
1.5555701 -0.83146971 0.196806
1.3826835 -0.92387956 0.17680599
1.3826835 -0.92387956 0.196806
1.1950903 -0.98078531 0.17680599
1.1950903 -0.98078531 0.196806
0.99999994 -1 0.17680599
0.99999994 -1 0.196806
0.80490977 -0.98078531 0.17680599
0.80490977 -0.98078531 0.196806
0.6173166 -0.92387956 0.17680599
0.6173166 -0.92387956 0.196806
0.4444297 -0.8314696 0.17680599
0.4444297 -0.8314696 0.196806
0.29289323 -0.70710683 0.17680599
0.29289323 -0.70710683 0.196806
0.16853046 -0.55557042 0.17680599
0.16853046 -0.55557042 0.196806
0.076120436 -0.38268358 0.17680599
0.076120436 -0.38268358 0.196806
0.01921469 -0.1950904 0.17680599
0.01921469 -0.1950904 0.196806
0 1.1924882e-08 0.17680599
0 1.1924882e-08 0.196806
0.01921469 0.19509043 0.17680599
0.01921469 0.19509043 0.196806
0.076120496 0.3826836 0.17680599
0.076120496 0.3826836 0.196806
0.16853023 0.55557007 0.17680599
0.16853023 0.55557007 0.196806
0.29289311 0.70710671 0.17680599
0.29289311 0.70710671 0.196806
0.4444297 0.83146966 0.17680599
0.4444297 0.83146966 0.196806
0.6173166 0.92387962 0.17680599
0.6173166 0.92387962 0.196806
0.80490977 0.98078531 0.17680599
0.80490977 0.98078531 0.196806
1 1 0.20180608
1 1 0.22180609
1.1950903 0.98078531 0.20180608
1.1950903 0.98078531 0.22180609
1.3826835 0.92387956 0.20180608
1.3826835 0.92387956 0.22180609
1.5555702 0.83146966 0.20180608
1.5555702 0.83146966 0.22180609
1.7071068 0.70710683 0.20180608
1.7071068 0.70710683 0.22180609
1.8314697 0.55557024 0.20180608
1.8314697 0.55557024 0.22180609
1.9238796 0.38268343 0.20180608
1.9238796 0.38268343 0.22180609
1.9807854 0.19509035 0.20180608
1.9807854 0.19509035 0.22180609
2 -4.3711392e-08 0.20180608
2 -4.3711392e-08 0.22180609
1.9807854 -0.19509032 0.20180608
1.9807854 -0.19509032 0.22180609
1.9238796 -0.3826834 0.20180608
1.9238796 -0.3826834 0.22180609
1.8314698 -0.55557019 0.20180608
1.8314698 -0.55557019 0.22180609
1.7071068 -0.70710683 0.20180608
1.7071068 -0.70710683 0.22180609
1.5555701 -0.83146971 0.20180608
1.5555701 -0.83146971 0.22180609
1.3826835 -0.92387956 0.20180608
1.3826835 -0.92387956 0.22180609
1.1950903 -0.98078531 0.20180608
1.1950903 -0.98078531 0.22180609
0.99999994 -1 0.20180608
0.99999994 -1 0.22180609
0.80490977 -0.98078531 0.20180608
0.80490977 -0.98078531 0.22180609
0.6173166 -0.92387956 0.20180608
0.6173166 -0.92387956 0.22180609
0.4444297 -0.8314696 0.20180608
0.4444297 -0.8314696 0.22180609
0.29289323 -0.70710683 0.20180608
0.29289323 -0.70710683 0.22180609
0.16853046 -0.55557042 0.20180608
0.16853046 -0.55557042 0.22180609
0.076120436 -0.38268358 0.20180608
0.076120436 -0.38268358 0.22180609
0.01921469 -0.1950904 0.20180608
0.01921469 -0.1950904 0.22180609
0 1.1924882e-08 0.20180608
0 1.1924882e-08 0.22180609
0.01921469 0.19509043 0.20180608
0.01921469 0.19509043 0.22180609
0.076120496 0.3826836 0.20180608
0.076120496 0.3826836 0.22180609
0.16853023 0.55557007 0.20180608
0.16853023 0.55557007 0.22180609
0.29289311 0.70710671 0.20180608
0.29289311 0.70710671 0.22180609
0.4444297 0.83146966 0.20180608
0.4444297 0.83146966 0.22180609
0.6173166 0.92387962 0.20180608
0.6173166 0.92387962 0.22180609
0.80490977 0.98078531 0.20180608
0.80490977 0.98078531 0.22180609
1 1 0.22680606
1 1 0.24680607
1.1950903 0.98078531 0.22680606
1.1950903 0.98078531 0.24680607
1.3826835 0.92387956 0.22680606
1.3826835 0.92387956 0.24680607
1.5555702 0.83146966 0.22680606
1.5555702 0.83146966 0.24680607
1.7071068 0.70710683 0.22680606
1.7071068 0.70710683 0.24680607
1.8314697 0.55557024 0.22680606
1.8314697 0.55557024 0.24680607
1.9238796 0.38268343 0.22680606
1.9238796 0.38268343 0.24680607
1.9807854 0.19509035 0.22680606
1.9807854 0.19509035 0.24680607
2 -4.3711392e-08 0.22680606
2 -4.3711392e-08 0.24680607
1.9807854 -0.19509032 0.22680606
1.9807854 -0.19509032 0.24680607
1.9238796 -0.3826834 0.22680606
1.9238796 -0.3826834 0.24680607
1.8314698 -0.55557019 0.22680606
1.8314698 -0.55557019 0.24680607
1.7071068 -0.70710683 0.22680606
1.7071068 -0.70710683 0.24680607
1.5555701 -0.83146971 0.22680606
1.5555701 -0.83146971 0.24680607
1.3826835 -0.92387956 0.22680606
1.3826835 -0.92387956 0.24680607
1.1950903 -0.98078531 0.22680606
1.1950903 -0.98078531 0.24680607
0.99999994 -1 0.22680606
0.99999994 -1 0.24680607
0.80490977 -0.98078531 0.22680606
0.80490977 -0.98078531 0.24680607
0.6173166 -0.92387956 0.22680606
0.6173166 -0.92387956 0.24680607
0.4444297 -0.8314696 0.22680606
0.4444297 -0.8314696 0.24680607
0.29289323 -0.70710683 0.22680606
0.29289323 -0.70710683 0.24680607
0.16853046 -0.55557042 0.22680606
0.16853046 -0.55557042 0.24680607
0.076120436 -0.38268358 0.22680606
0.076120436 -0.38268358 0.24680607
0.01921469 -0.1950904 0.22680606
0.01921469 -0.1950904 0.24680607
0 1.1924882e-08 0.22680606
0 1.1924882e-08 0.24680607
0.01921469 0.19509043 0.22680606
0.01921469 0.19509043 0.24680607
0.076120496 0.3826836 0.22680606
0.076120496 0.3826836 0.24680607
0.16853023 0.55557007 0.22680606
0.16853023 0.55557007 0.24680607
0.29289311 0.70710671 0.22680606
0.29289311 0.70710671 0.24680607
0.4444297 0.83146966 0.22680606
0.4444297 0.83146966 0.24680607
0.6173166 0.92387962 0.22680606
0.6173166 0.92387962 0.24680607
0.80490977 0.98078531 0.22680606
0.80490977 0.98078531 0.24680607
1 1 0.25180602
1 1 0.27180606
1.1950903 0.98078531 0.25180602
1.1950903 0.98078531 0.27180606
1.3826835 0.92387956 0.25180602
1.3826835 0.92387956 0.27180606
1.5555702 0.83146966 0.25180602
1.5555702 0.83146966 0.27180606
1.7071068 0.70710683 0.25180602
1.7071068 0.70710683 0.27180606
1.8314697 0.55557024 0.25180602
1.8314697 0.55557024 0.27180606
1.9238796 0.38268343 0.25180602
1.9238796 0.38268343 0.27180606
1.9807854 0.19509035 0.25180602
1.9807854 0.19509035 0.27180606
2 -4.3711392e-08 0.25180602
2 -4.3711392e-08 0.27180606
1.9807854 -0.19509032 0.25180602
1.9807854 -0.19509032 0.27180606
1.9238796 -0.3826834 0.25180602
1.9238796 -0.3826834 0.27180606
1.8314698 -0.55557019 0.25180602
1.8314698 -0.55557019 0.27180606
1.7071068 -0.70710683 0.25180602
1.7071068 -0.70710683 0.27180606
1.5555701 -0.83146971 0.25180602
1.5555701 -0.83146971 0.27180606
1.3826835 -0.92387956 0.25180602
1.3826835 -0.92387956 0.27180606
1.1950903 -0.98078531 0.25180602
1.1950903 -0.98078531 0.27180606
0.99999994 -1 0.25180602
0.99999994 -1 0.27180606
0.80490977 -0.98078531 0.25180602
0.80490977 -0.98078531 0.27180606
0.6173166 -0.92387956 0.25180602
0.6173166 -0.92387956 0.27180606
0.4444297 -0.8314696 0.25180602
0.4444297 -0.8314696 0.27180606
0.29289323 -0.70710683 0.25180602
0.29289323 -0.70710683 0.27180606
0.16853046 -0.55557042 0.25180602
0.16853046 -0.55557042 0.27180606
0.076120436 -0.38268358 0.25180602
0.076120436 -0.38268358 0.27180606
0.01921469 -0.1950904 0.25180602
0.01921469 -0.1950904 0.27180606
0 1.1924882e-08 0.25180602
0 1.1924882e-08 0.27180606
0.01921469 0.19509043 0.25180602
0.01921469 0.19509043 0.27180606
0.076120496 0.3826836 0.25180602
0.076120496 0.3826836 0.27180606
0.16853023 0.55557007 0.25180602
0.16853023 0.55557007 0.27180606
0.29289311 0.70710671 0.25180602
0.29289311 0.70710671 0.27180606
0.4444297 0.83146966 0.25180602
0.4444297 0.83146966 0.27180606
0.6173166 0.92387962 0.25180602
0.6173166 0.92387962 0.27180606
0.80490977 0.98078531 0.25180602
0.80490977 0.98078531 0.27180606
1 1 0.276806
1 1 0.29680601
1.1950903 0.98078531 0.276806
1.1950903 0.98078531 0.29680601
1.3826835 0.92387956 0.276806
1.3826835 0.92387956 0.29680601
1.5555702 0.83146966 0.276806
1.5555702 0.83146966 0.29680601
1.7071068 0.70710683 0.276806
1.7071068 0.70710683 0.29680601
1.8314697 0.55557024 0.276806
1.8314697 0.55557024 0.29680601
1.9238796 0.38268343 0.276806
1.9238796 0.38268343 0.29680601
1.9807854 0.19509035 0.276806
1.9807854 0.19509035 0.29680601
2 -4.3711392e-08 0.276806
2 -4.3711392e-08 0.29680601
1.9807854 -0.19509032 0.276806
1.9807854 -0.19509032 0.29680601
1.9238796 -0.3826834 0.276806
1.9238796 -0.3826834 0.29680601
1.8314698 -0.55557019 0.276806
1.8314698 -0.55557019 0.29680601
1.7071068 -0.70710683 0.276806
1.7071068 -0.70710683 0.29680601
1.5555701 -0.83146971 0.276806
1.5555701 -0.83146971 0.29680601
1.3826835 -0.92387956 0.276806
1.3826835 -0.92387956 0.29680601
1.1950903 -0.98078531 0.276806
1.1950903 -0.98078531 0.29680601
0.99999994 -1 0.276806
0.99999994 -1 0.29680601
0.80490977 -0.98078531 0.276806
0.80490977 -0.98078531 0.29680601
0.6173166 -0.92387956 0.276806
0.6173166 -0.92387956 0.29680601
0.4444297 -0.8314696 0.276806
0.4444297 -0.8314696 0.29680601
0.29289323 -0.70710683 0.276806
0.29289323 -0.70710683 0.29680601
0.16853046 -0.55557042 0.276806
0.16853046 -0.55557042 0.29680601
0.076120436 -0.38268358 0.276806
0.076120436 -0.38268358 0.29680601
0.01921469 -0.1950904 0.276806
0.01921469 -0.1950904 0.29680601
0 1.1924882e-08 0.276806
0 1.1924882e-08 0.29680601
0.01921469 0.19509043 0.276806
0.01921469 0.19509043 0.29680601
0.076120496 0.3826836 0.276806
0.076120496 0.3826836 0.29680601
0.16853023 0.55557007 0.276806
0.16853023 0.55557007 0.29680601
0.29289311 0.70710671 0.276806
0.29289311 0.70710671 0.29680601
0.4444297 0.83146966 0.276806
0.4444297 0.83146966 0.29680601
0.6173166 0.92387962 0.276806
0.6173166 0.92387962 0.29680601
0.80490977 0.98078531 0.276806
0.80490977 0.98078531 0.29680601
1 0.9999997 0.301806
1 0.9999997 0.32180598
1.1950903 0.98078495 0.301806
1.1950903 0.98078495 0.32180598
1.3826835 0.92387921 0.301806
1.3826835 0.92387921 0.32180598
1.5555702 0.8314693 0.301806
1.5555702 0.8314693 0.32180598
1.7071068 0.70710647 0.301806
1.7071068 0.70710647 0.32180598
1.8314697 0.55556989 0.301806
1.8314697 0.55556989 0.32180598
1.9238796 0.3826831 0.301806
1.9238796 0.3826831 0.32180598
1.9807854 0.19509001 0.301806
1.9807854 0.19509001 0.32180598
2 -3.8345786e-07 0.301806
2 -3.8345786e-07 0.32180598
1.9807854 -0.19509067 0.301806
1.9807854 -0.19509067 0.32180598
1.9238796 -0.38268375 0.301806
1.9238796 -0.38268375 0.32180598
1.8314698 -0.55557054 0.301806
1.8314698 -0.55557054 0.32180598
1.7071068 -0.70710713 0.301806
1.7071068 -0.70710713 0.32180598
1.5555701 -0.83147001 0.301806
1.5555701 -0.83147001 0.32180598
1.3826835 -0.92387986 0.301806
1.3826835 -0.92387986 0.32180598
1.1950903 -0.98078567 0.301806
1.1950903 -0.98078567 0.32180598
0.99999994 -1.0000004 0.301806
0.99999994 -1.0000004 0.32180598
0.80490977 -0.98078567 0.301806
0.80490977 -0.98078567 0.32180598
0.6173166 -0.92387986 0.301806
0.6173166 -0.92387986 0.32180598
0.4444297 -0.83146989 0.301806
0.4444297 -0.83146989 0.32180598
0.29289323 -0.70710719 0.301806
0.29289323 -0.70710719 0.32180598
0.16853046 -0.55557078 0.301806
0.16853046 -0.55557078 0.32180598
0.076120436 -0.3826839 0.301806
0.076120436 -0.3826839 0.32180598
0.01921469 -0.19509073 0.301806
0.01921469 -0.19509073 0.32180598
0 -3.278216e-07 0.301806
0 -3.278216e-07 0.32180598
0.01921469 0.19509009 0.301806
0.01921469 0.19509009 0.32180598
0.076120496 0.38268325 0.301806
0.076120496 0.38268325 0.32180598
0.16853023 0.55556971 0.301806
0.16853023 0.55556971 0.32180598
0.29289311 0.70710635 0.301806
0.29289311 0.70710635 0.32180598
0.4444297 0.8314693 0.301806
0.4444297 0.8314693 0.32180598
0.6173166 0.92387927 0.301806
0.6173166 0.92387927 0.32180598
0.80490977 0.98078495 0.301806
0.80490977 0.98078495 0.32180598
1 1 0.3268061
1 1 0.34680608
1.1950903 0.98078531 0.3268061
1.1950903 0.98078531 0.34680608
1.3826835 0.92387956 0.3268061
1.3826835 0.92387956 0.34680608
1.5555702 0.83146966 0.3268061
1.5555702 0.83146966 0.34680608
1.7071068 0.70710683 0.3268061
1.7071068 0.70710683 0.34680608
1.8314697 0.55557024 0.3268061
1.8314697 0.55557024 0.34680608
1.9238796 0.38268343 0.3268061
1.9238796 0.38268343 0.34680608
1.9807854 0.19509035 0.3268061
1.9807854 0.19509035 0.34680608
2 -4.3711392e-08 0.3268061
2 -4.3711392e-08 0.34680608
1.9807854 -0.19509032 0.3268061
1.9807854 -0.19509032 0.34680608
1.9238796 -0.3826834 0.3268061
1.9238796 -0.3826834 0.34680608
1.8314698 -0.55557019 0.3268061
1.8314698 -0.55557019 0.34680608
1.7071068 -0.70710683 0.3268061
1.7071068 -0.70710683 0.34680608
1.5555701 -0.83146971 0.3268061
1.5555701 -0.83146971 0.34680608
1.3826835 -0.92387956 0.3268061
1.3826835 -0.92387956 0.34680608
1.1950903 -0.98078531 0.3268061
1.1950903 -0.98078531 0.34680608
0.99999994 -1 0.3268061
0.99999994 -1 0.34680608
0.80490977 -0.98078531 0.3268061
0.80490977 -0.98078531 0.34680608
0.6173166 -0.92387956 0.3268061
0.6173166 -0.92387956 0.34680608
0.4444297 -0.8314696 0.3268061
0.4444297 -0.8314696 0.34680608
0.29289323 -0.70710683 0.3268061
0.29289323 -0.70710683 0.34680608
0.16853046 -0.55557042 0.3268061
0.16853046 -0.55557042 0.34680608
0.076120436 -0.38268358 0.3268061
0.076120436 -0.38268358 0.34680608
0.01921469 -0.1950904 0.3268061
0.01921469 -0.1950904 0.34680608
0 1.1924882e-08 0.3268061
0 1.1924882e-08 0.34680608
0.01921469 0.19509043 0.3268061
0.01921469 0.19509043 0.34680608
0.076120496 0.3826836 0.3268061
0.076120496 0.3826836 0.34680608
0.16853023 0.55557007 0.3268061
0.16853023 0.55557007 0.34680608
0.29289311 0.70710671 0.3268061
0.29289311 0.70710671 0.34680608
0.4444297 0.83146966 0.3268061
0.4444297 0.83146966 0.34680608
0.6173166 0.92387962 0.3268061
0.6173166 0.92387962 0.34680608
0.80490977 0.98078531 0.3268061
0.80490977 0.98078531 0.34680608
1 1 0.35180607
1 1 0.37180606
1.1950903 0.98078531 0.35180607
1.1950903 0.98078531 0.37180606
1.3826835 0.92387956 0.35180607
1.3826835 0.92387956 0.37180606
1.5555702 0.83146966 0.35180607
1.5555702 0.83146966 0.37180606
1.7071068 0.70710683 0.35180607
1.7071068 0.70710683 0.37180606
1.8314697 0.55557024 0.35180607
1.8314697 0.55557024 0.37180606
1.9238796 0.38268343 0.35180607
1.9238796 0.38268343 0.37180606
1.9807854 0.19509035 0.35180607
1.9807854 0.19509035 0.37180606
2 -4.3711392e-08 0.35180607
2 -4.3711392e-08 0.37180606
1.9807854 -0.19509032 0.35180607
1.9807854 -0.19509032 0.37180606
1.9238796 -0.3826834 0.35180607
1.9238796 -0.3826834 0.37180606
1.8314698 -0.55557019 0.35180607
1.8314698 -0.55557019 0.37180606
1.7071068 -0.70710683 0.35180607
1.7071068 -0.70710683 0.37180606
1.5555701 -0.83146971 0.35180607
1.5555701 -0.83146971 0.37180606
1.3826835 -0.92387956 0.35180607
1.3826835 -0.92387956 0.37180606
1.1950903 -0.98078531 0.35180607
1.1950903 -0.98078531 0.37180606
0.99999994 -1 0.35180607
0.99999994 -1 0.37180606
0.80490977 -0.98078531 0.35180607
0.80490977 -0.98078531 0.37180606
0.6173166 -0.92387956 0.35180607
0.6173166 -0.92387956 0.37180606
0.4444297 -0.8314696 0.35180607
0.4444297 -0.8314696 0.37180606
0.29289323 -0.70710683 0.35180607
0.29289323 -0.70710683 0.37180606
0.16853046 -0.55557042 0.35180607
0.16853046 -0.55557042 0.37180606
0.076120436 -0.38268358 0.35180607
0.076120436 -0.38268358 0.37180606
0.01921469 -0.1950904 0.35180607
0.01921469 -0.1950904 0.37180606
0 1.1924882e-08 0.35180607
0 1.1924882e-08 0.37180606
0.01921469 0.19509043 0.35180607
0.01921469 0.19509043 0.37180606
0.076120496 0.3826836 0.35180607
0.076120496 0.3826836 0.37180606
0.16853023 0.55557007 0.35180607
0.16853023 0.55557007 0.37180606
0.29289311 0.70710671 0.35180607
0.29289311 0.70710671 0.37180606
0.4444297 0.83146966 0.35180607
0.4444297 0.83146966 0.37180606
0.6173166 0.92387962 0.35180607
0.6173166 0.92387962 0.37180606
0.80490977 0.98078531 0.35180607
0.80490977 0.98078531 0.37180606
1 1 0.37680605
1 1 0.39680603
1.1950903 0.98078531 0.37680605
1.1950903 0.98078531 0.39680603
1.3826835 0.92387956 0.37680605
1.3826835 0.92387956 0.39680603
1.5555702 0.83146966 0.37680605
1.5555702 0.83146966 0.39680603
1.7071068 0.70710683 0.37680605
1.7071068 0.70710683 0.39680603
1.8314697 0.55557024 0.37680605
1.8314697 0.55557024 0.39680603
1.9238796 0.38268343 0.37680605
1.9238796 0.38268343 0.39680603
1.9807854 0.19509035 0.37680605
1.9807854 0.19509035 0.39680603
2 -4.3711392e-08 0.37680605
2 -4.3711392e-08 0.39680603
1.9807854 -0.19509032 0.37680605
1.9807854 -0.19509032 0.39680603
1.9238796 -0.3826834 0.37680605
1.9238796 -0.3826834 0.39680603
1.8314698 -0.55557019 0.37680605
1.8314698 -0.55557019 0.39680603
1.7071068 -0.70710683 0.37680605
1.7071068 -0.70710683 0.39680603
1.5555701 -0.83146971 0.37680605
1.5555701 -0.83146971 0.39680603
1.3826835 -0.92387956 0.37680605
1.3826835 -0.92387956 0.39680603
1.1950903 -0.98078531 0.37680605
1.1950903 -0.98078531 0.39680603
0.99999994 -1 0.37680605
0.99999994 -1 0.39680603
0.80490977 -0.98078531 0.37680605
0.80490977 -0.98078531 0.39680603
0.6173166 -0.92387956 0.37680605
0.6173166 -0.92387956 0.39680603
0.4444297 -0.8314696 0.37680605
0.4444297 -0.8314696 0.39680603
0.29289323 -0.70710683 0.37680605
0.29289323 -0.70710683 0.39680603
0.16853046 -0.55557042 0.37680605
0.16853046 -0.55557042 0.39680603
0.076120436 -0.38268358 0.37680605
0.076120436 -0.38268358 0.39680603
0.01921469 -0.1950904 0.37680605
0.01921469 -0.1950904 0.39680603
0 1.1924882e-08 0.37680605
0 1.1924882e-08 0.39680603
0.01921469 0.19509043 0.37680605
0.01921469 0.19509043 0.39680603
0.076120496 0.3826836 0.37680605
0.076120496 0.3826836 0.39680603
0.16853023 0.55557007 0.37680605
0.16853023 0.55557007 0.39680603
0.29289311 0.70710671 0.37680605
0.29289311 0.70710671 0.39680603
0.4444297 0.83146966 0.37680605
0.4444297 0.83146966 0.39680603
0.6173166 0.92387962 0.37680605
0.6173166 0.92387962 0.39680603
0.80490977 0.98078531 0.37680605
0.80490977 0.98078531 0.39680603
1 1 0.40180603
1 1 0.42180601
1.1950903 0.98078531 0.40180603
1.1950903 0.98078531 0.42180601
1.3826835 0.92387956 0.40180603
1.3826835 0.92387956 0.42180601
1.5555702 0.83146966 0.40180603
1.5555702 0.83146966 0.42180601
1.7071068 0.70710683 0.40180603
1.7071068 0.70710683 0.42180601
1.8314697 0.55557024 0.40180603
1.8314697 0.55557024 0.42180601
1.9238796 0.38268343 0.40180603
1.9238796 0.38268343 0.42180601
1.9807854 0.19509035 0.40180603
1.9807854 0.19509035 0.42180601
2 -4.3711392e-08 0.40180603
2 -4.3711392e-08 0.42180601
1.9807854 -0.19509032 0.40180603
1.9807854 -0.19509032 0.42180601
1.9238796 -0.3826834 0.40180603
1.9238796 -0.3826834 0.42180601
1.8314698 -0.55557019 0.40180603
1.8314698 -0.55557019 0.42180601
1.7071068 -0.70710683 0.40180603
1.7071068 -0.70710683 0.42180601
1.5555701 -0.83146971 0.40180603
1.5555701 -0.83146971 0.42180601
1.3826835 -0.92387956 0.40180603
1.3826835 -0.92387956 0.42180601
1.1950903 -0.98078531 0.40180603
1.1950903 -0.98078531 0.42180601
0.99999994 -1 0.40180603
0.99999994 -1 0.42180601
0.80490977 -0.98078531 0.40180603
0.80490977 -0.98078531 0.42180601
0.6173166 -0.92387956 0.40180603
0.6173166 -0.92387956 0.42180601
0.4444297 -0.8314696 0.40180603
0.4444297 -0.8314696 0.42180601
0.29289323 -0.70710683 0.40180603
0.29289323 -0.70710683 0.42180601
0.16853046 -0.55557042 0.40180603
0.16853046 -0.55557042 0.42180601
0.076120436 -0.38268358 0.40180603
0.076120436 -0.38268358 0.42180601
0.01921469 -0.1950904 0.40180603
0.01921469 -0.1950904 0.42180601
0 1.1924882e-08 0.40180603
0 1.1924882e-08 0.42180601
0.01921469 0.19509043 0.40180603
0.01921469 0.19509043 0.42180601
0.076120496 0.3826836 0.40180603
0.076120496 0.3826836 0.42180601
0.16853023 0.55557007 0.40180603
0.16853023 0.55557007 0.42180601
0.29289311 0.70710671 0.40180603
0.29289311 0.70710671 0.42180601
0.4444297 0.83146966 0.40180603
0.4444297 0.83146966 0.42180601
0.6173166 0.92387962 0.40180603
0.6173166 0.92387962 0.42180601
0.80490977 0.98078531 0.40180603
0.80490977 0.98078531 0.42180601
