# .PCD v0.7 - Point Cloud Data file format
VERSION 0.7
FIELDS x y z
SIZE 4 4 4
TYPE F F F
COUNT 1 1 1
WIDTH 1377
HEIGHT 1
VIEWPOINT 0 0 0 1 0 0 0
POINTS 1377
DATA ascii
0 -0.050000012 0.42180601
-0.1853358 -0.068253994 0.42180601
-0.36354929 -0.12231445 0.42180601
-0.52779174 -0.21010387 0.42180601
-0.67175144 -0.32824856 0.42180601
-0.78989613 -0.47220826 0.42180601
-0.87768555 -0.63645077 0.42180601
-0.93174601 -0.81466419 0.42180601
-0.94999999 -1 0.42180601
-0.93174601 -1.1853358 0.42180601
-0.87768555 -1.3635492 0.42180601
-0.78989619 -1.5277917 0.42180601
-0.67175144 -1.6717515 0.42180601
-0.52779168 -1.7898962 0.42180601
-0.36354929 -1.8776855 0.42180601
-0.18533579 -1.931746 0.42180601
8.3051638e-08 -1.95 0.42180601
0.18533574 -1.931746 0.42180601
0.36354926 -1.8776855 0.42180601
0.5277918 -1.789896 0.42180601
0.67175138 -1.6717515 0.42180601
0.78989601 -1.527792 0.42180601
0.87768555 -1.3635494 0.42180601
0.93174601 -1.1853359 0.42180601
0.94999999 -1 0.42180601
0.93174601 -0.81466413 0.42180601
0.87768549 -0.63645059 0.42180601
0.78989619 -0.47220844 0.42180601
0.67175156 -0.32824868 0.42180601
0.5277918 -0.21010387 0.42180601
0.36354926 -0.12231445 0.42180601
0.18533573 -0.068253994 0.42180601
0 -0.099999964 0.42180601
-0.17558129 -0.11729324 0.42180601
-0.34441513 -0.16850847 0.42180601
-0.50001323 -0.25167739 0.42180601
-0.63639611 -0.36360389 0.42180601
-0.74832261 -0.49998677 0.42180601
-0.83149153 -0.65558493 0.42180601
-0.88270676 -0.82441866 0.42180601
-0.90000004 -1 0.42180601
-0.88270676 -1.1755813 0.42180601
-0.83149159 -1.3444151 0.42180601
-0.74832267 -1.5000131 0.42180601
-0.63639611 -1.6363962 0.42180601
-0.50001317 -1.7483227 0.42180601
-0.34441516 -1.8314915 0.42180601
-0.17558128 -1.8827069 0.42180601
7.86805e-08 -1.9000001 0.42180601
0.17558123 -1.8827069 0.42180601
0.3444151 -1.8314915 0.42180601
0.50001323 -1.7483225 0.42180601
0.63639605 -1.6363962 0.42180601
0.74832255 -1.5000134 0.42180601
0.83149153 -1.3444152 0.42180601
0.88270676 -1.1755813 0.42180601
0.90000004 -1 0.42180601
0.88270676 -0.82441866 0.42180601
0.83149147 -0.65558475 0.42180601
0.74832273 -0.49998689 0.42180601
0.63639623 -0.36360401 0.42180601
0.50001323 -0.25167739 0.42180601
0.3444151 -0.16850841 0.42180601
0.17558122 -0.11729318 0.42180601
0 -0.14999998 0.42180601
-0.16582678 -0.16633248 0.42180601
-0.32528093 -0.21470243 0.42180601
-0.47223473 -0.29325086 0.42180601
-0.60104078 -0.39895922 0.42180601
-0.70674914 -0.52776527 0.42180601
-0.78529757 -0.6747191 0.42180601
-0.83366752 -0.8341732 0.42180601
-0.85000002 -1 0.42180601
-0.83366752 -1.1658268 0.42180601
-0.78529763 -1.3252809 0.42180601
-0.7067492 -1.4722347 0.42180601
-0.60104078 -1.6010408 0.42180601
-0.4722347 -1.7067492 0.42180601
-0.32528096 -1.7852976 0.42180601
-0.16582677 -1.8336675 0.42180601
7.4309362e-08 -1.85 0.42180601
0.16582671 -1.8336675 0.42180601
0.3252809 -1.7852976 0.42180601
0.47223476 -1.7067492 0.42180601
0.60104072 -1.6010408 0.42180601
0.70674908 -1.4722348 0.42180601
0.78529757 -1.325281 0.42180601
0.83366752 -1.1658268 0.42180601
0.85000002 -1 0.42180601
0.83366752 -0.83417314 0.42180601
0.78529757 -0.67471892 0.42180601
0.70674926 -0.52776539 0.42180601
0.6010409 -0.39895934 0.42180601
0.47223476 -0.29325086 0.42180601
0.3252809 -0.21470237 0.42180601
0.16582669 -0.16633242 0.42180601
0 -0.19999993 0.42180601
-0.15607227 -0.21537173 0.42180601
-0.3061468 -0.26089633 0.42180601
-0.44445622 -0.33482426 0.42180601
-0.56568545 -0.43431455 0.42180601
-0.66517574 -0.55554378 0.42180601
-0.73910367 -0.69385326 0.42180601
-0.78462827 -0.84392774 0.42180601
-0.80000007 -1 0.42180601
-0.78462827 -1.1560723 0.42180601
-0.73910373 -1.3061467 0.42180601
-0.66517574 -1.4444561 0.42180601
-0.56568545 -1.5656855 0.42180601
-0.44445616 -1.6651757 0.42180601
-0.30614683 -1.7391037 0.42180601
-0.15607226 -1.7846283 0.42180601
6.9938224e-08 -1.8000001 0.42180601
0.15607221 -1.7846283 0.42180601
0.30614677 -1.7391037 0.42180601
0.44445628 -1.6651757 0.42180601
0.56568539 -1.5656855 0.42180601
0.66517562 -1.4444563 0.42180601
0.73910367 -1.3061469 0.42180601
0.78462827 -1.1560724 0.42180601
0.80000007 -1 0.42180601
0.78462827 -0.84392768 0.42180601
0.73910362 -0.69385314 0.42180601
0.6651758 -0.5555439 0.42180601
0.56568557 -0.43431467 0.42180601
0.44445628 -0.33482426 0.42180601
0.30614677 -0.26089627 0.42180601
0.1560722 -0.21537173 0.42180601
0 -0.25 0.42180601
-0.14631775 -0.26441109 0.42180601
-0.28701261 -0.30709034 0.42180601
-0.41667771 -0.37639779 0.42180601
-0.53033006 -0.46966994 0.42180601
-0.62360221 -0.58332229 0.42180601
-0.69290966 -0.71298742 0.42180601
-0.73558891 -0.85368222 0.42180601
-0.75 -1 0.42180601
-0.73558891 -1.1463177 0.42180601
-0.69290972 -1.2870126 0.42180601
-0.62360227 -1.4166777 0.42180601
-0.53033006 -1.5303301 0.42180601
-0.41667765 -1.6236023 0.42180601
-0.28701261 -1.6929097 0.42180601
-0.14631774 -1.735589 0.42180601
6.5567086e-08 -1.75 0.42180601
0.14631769 -1.735589 0.42180601
0.28701258 -1.6929097 0.42180601
0.41667771 -1.6236022 0.42180601
0.53033 -1.5303302 0.42180601
0.62360209 -1.4166778 0.42180601
0.69290966 -1.2870127 0.42180601
0.73558891 -1.1463178 0.42180601
0.75 -1 0.42180601
0.73558891 -0.85368216 0.42180601
0.6929096 -0.7129873 0.42180601
0.62360233 -0.58332241 0.42180601
0.53033018 -0.46967006 0.42180601
0.41667771 -0.37639779 0.42180601
0.28701258 -0.30709028 0.42180601
0.14631768 -0.26441103 0.42180601
0 -0.30000001 0.42180601
-0.13656321 -0.31345034 0.42180601
-0.26787841 -0.35328436 0.42180601
-0.38889915 -0.41797131 0.42180601
-0.4949747 -0.50502527 0.42180601
-0.58202869 -0.61110085 0.42180601
-0.64671564 -0.73212159 0.42180601
-0.68654966 -0.86343676 0.42180601
-0.69999999 -1 0.42180601
-0.68654966 -1.1365632 0.42180601
-0.6467157 -1.2678784 0.42180601
-0.58202875 -1.3888991 0.42180601
-0.4949747 -1.4949747 0.42180601
-0.38889912 -1.5820287 0.42180601
-0.26787841 -1.6467156 0.42180601
-0.13656321 -1.6865497 0.42180601
6.1195941e-08 -1.7 0.42180601
0.13656318 -1.6865497 0.42180601
0.26787841 -1.6467156 0.42180601
0.38889921 -1.5820286 0.42180601
0.4949747 -1.4949747 0.42180601
0.58202863 -1.3888993 0.42180601
0.64671564 -1.2678785 0.42180601
0.68654966 -1.1365633 0.42180601
0.69999999 -1 0.42180601
0.68654966 -0.8634367 0.42180601
0.64671564 -0.73212147 0.42180601
0.58202881 -0.61110097 0.42180601
0.49497482 -0.50502539 0.42180601
0.38889921 -0.41797131 0.42180601
0.26787841 -0.3532843 0.42180601
0.13656317 -0.31345028 0.42180601
0 -0.35000002 0.42180601
-0.12680872 -0.36248958 0.42180601
-0.24874425 -0.39947832 0.42180601
-0.36112067 -0.45954472 0.42180601
-0.4596194 -0.5403806 0.42180601
-0.54045528 -0.6388793 0.42180601
0.63751042 -1.1268088 0.42180601
0.64999998 -1 0.42180601
0.63751042 -0.87319124 0.42180601
0.60052162 -0.75125569 0.42180601
0.54045534 -0.63887942 0.42180601
0.45961946 -0.54038066 0.42180601
0.36112067 -0.45954472 0.42180601
0.24874422 -0.39947832 0.42180601
0.12680866 -0.36248952 0.42180601
-0.83149153 -0.65558493 0.0028645694
-0.88270676 -0.82441866 0.0028645694
-0.90000004 -1 0.0028645694
0.90000004 -1 0.0028645694
0.88270676 -0.82441866 0.0028645694
0.83149147 -0.65558475 0.0028645694
0 -0.050000012 0.0028645694
-0.36354929 -0.12231445 0.0028645694
-0.67175144 -0.32824856 0.0028645694
-0.78989613 -0.47220826 0.0028645694
-0.93174601 -0.81466419 0.0028645694
-0.94999999 -1 0.0028645694
-0.93174601 -1.1853358 0.0028645694
-0.87768555 -1.3635492 0.0028645694
-0.67175144 -1.6717515 0.0028645694
-0.52779168 -1.7898962 0.0028645694
-0.36354929 -1.8776855 0.0028645694
-0.18533579 -1.931746 0.0028645694
0.18533574 -1.931746 0.0028645694
0.36354926 -1.8776855 0.0028645694
0.5277918 -1.789896 0.0028645694
0.67175138 -1.6717515 0.0028645694
0.87768555 -1.3635494 0.0028645694
0.93174601 -1.1853359 0.0028645694
0.94999999 -1 0.0028645694
0.93174601 -0.81466413 0.0028645694
0.78989619 -0.47220844 0.0028645694
0.67175156 -0.32824868 0.0028645694
0.36354926 -0.12231445 0.0028645694
0 0 0.021806031
0.19509032 -0.01921469 0.021806031
0.38268346 -0.076120436 0.021806031
0.55557024 -0.16853034 0.0018060505
0.55557024 -0.16853034 0.021806031
0.70710683 -0.29289317 0.021806031
0.83146966 -0.44442976 0.0018060505
0.83146966 -0.44442976 0.021806031
0.92387956 -0.6173166 0.0018060505
0.92387956 -0.6173166 0.021806031
0.98078531 -0.80490965 0.021806031
1 -1 0.0018060505
1 -1 0.021806031
0.98078531 -1.1950903 0.021806031
0.92387962 -1.3826834 0.0018060505
0.92387962 -1.3826834 0.021806031
0.83146971 -1.5555701 0.0018060505
0.83146971 -1.5555701 0.021806031
0.70710683 -1.7071068 0.0018060505
0.70710683 -1.7071068 0.021806031
0.55557019 -1.8314698 0.021806031
0.38268349 -1.9238796 0.021806031
0.19509031 -1.9807854 0.021806031
-8.7422784e-08 -2 0.0018060505
-8.7422784e-08 -2 0.021806031
-0.19509025 -1.9807854 0.021806031
-0.38268343 -1.9238796 0.021806031
-0.5555703 -1.8314695 0.021806031
-0.70710677 -1.7071068 0.0018060505
-0.70710677 -1.7071068 0.021806031
-0.83146954 -1.5555704 0.0018060505
-0.83146954 -1.5555704 0.021806031
-0.92387956 -1.3826835 0.0018060505
-0.92387956 -1.3826835 0.021806031
-0.98078531 -1.1950904 0.021806031
-1 -1 0.0018060505
-1 -1 0.021806031
-0.98078531 -0.80490959 0.021806031
-0.9238795 -0.61731637 0.0018060505
-0.9238795 -0.61731637 0.021806031
-0.83146977 -0.44442993 0.0018060505
-0.83146977 -0.44442993 0.021806031
-0.70710689 -0.29289329 0.021806031
-0.5555703 -0.16853034 0.021806031
-0.38268343 -0.076120377 0.021806031
-0.19509023 -0.01921469 0.021806031
0 0 0.026806027
0 0 0.046806008
0.19509032 -0.01921469 0.026806027
0.19509032 -0.01921469 0.046806008
0.38268346 -0.076120436 0.026806027
0.38268346 -0.076120436 0.046806008
0.55557024 -0.16853034 0.026806027
0.55557024 -0.16853034 0.046806008
0.70710683 -0.29289317 0.026806027
0.70710683 -0.29289317 0.046806008
0.83146966 -0.44442976 0.026806027
0.83146966 -0.44442976 0.046806008
0.92387956 -0.6173166 0.026806027
0.92387956 -0.6173166 0.046806008
0.98078531 -0.80490965 0.026806027
0.98078531 -0.80490965 0.046806008
1 -1 0.026806027
1 -1 0.046806008
0.98078531 -1.1950903 0.026806027
0.98078531 -1.1950903 0.046806008
0.92387962 -1.3826834 0.026806027
0.92387962 -1.3826834 0.046806008
0.83146971 -1.5555701 0.026806027
0.83146971 -1.5555701 0.046806008
0.70710683 -1.7071068 0.026806027
0.70710683 -1.7071068 0.046806008
0.55557019 -1.8314698 0.026806027
0.55557019 -1.8314698 0.046806008
0.38268349 -1.9238796 0.026806027
0.38268349 -1.9238796 0.046806008
0.19509031 -1.9807854 0.026806027
0.19509031 -1.9807854 0.046806008
-8.7422784e-08 -2 0.026806027
-8.7422784e-08 -2 0.046806008
-0.19509025 -1.9807854 0.026806027
-0.19509025 -1.9807854 0.046806008
-0.38268343 -1.9238796 0.026806027
-0.38268343 -1.9238796 0.046806008
-0.5555703 -1.8314695 0.026806027
-0.5555703 -1.8314695 0.046806008
-0.70710677 -1.7071068 0.026806027
-0.70710677 -1.7071068 0.046806008
-0.83146954 -1.5555704 0.026806027
-0.83146954 -1.5555704 0.046806008
-0.92387956 -1.3826835 0.026806027
-0.92387956 -1.3826835 0.046806008
-0.98078531 -1.1950904 0.026806027
-0.98078531 -1.1950904 0.046806008
-1 -1 0.026806027
-1 -1 0.046806008
-0.98078531 -0.80490959 0.026806027
-0.98078531 -0.80490959 0.046806008
-0.9238795 -0.61731637 0.026806027
-0.9238795 -0.61731637 0.046806008
-0.83146977 -0.44442993 0.026806027
-0.83146977 -0.44442993 0.046806008
-0.70710689 -0.29289329 0.026806027
-0.70710689 -0.29289329 0.046806008
-0.5555703 -0.16853034 0.026806027
-0.5555703 -0.16853034 0.046806008
-0.38268343 -0.076120377 0.026806027
-0.38268343 -0.076120377 0.046806008
-0.19509023 -0.01921469 0.026806027
-0.19509023 -0.01921469 0.046806008
0 0 0.051806003
0 0 0.071805984
0.19509032 -0.01921469 0.051806003
0.19509032 -0.01921469 0.071805984
0.38268346 -0.076120436 0.051806003
0.38268346 -0.076120436 0.071805984
0.55557024 -0.16853034 0.051806003
0.55557024 -0.16853034 0.071805984
0.70710683 -0.29289317 0.051806003
0.70710683 -0.29289317 0.071805984
0.83146966 -0.44442976 0.051806003
0.83146966 -0.44442976 0.071805984
0.92387956 -0.6173166 0.051806003
0.92387956 -0.6173166 0.071805984
0.98078531 -0.80490965 0.051806003
0.98078531 -0.80490965 0.071805984
1 -1 0.051806003
1 -1 0.071805984
0.98078531 -1.1950903 0.051806003
0.98078531 -1.1950903 0.071805984
0.92387962 -1.3826834 0.051806003
0.92387962 -1.3826834 0.071805984
0.83146971 -1.5555701 0.051806003
0.83146971 -1.5555701 0.071805984
0.70710683 -1.7071068 0.051806003
0.70710683 -1.7071068 0.071805984
0.55557019 -1.8314698 0.051806003
0.55557019 -1.8314698 0.071805984
0.38268349 -1.9238796 0.051806003
0.38268349 -1.9238796 0.071805984
0.19509031 -1.9807854 0.051806003
0.19509031 -1.9807854 0.071805984
-8.7422784e-08 -2 0.051806003
-8.7422784e-08 -2 0.071805984
-0.19509025 -1.9807854 0.051806003
-0.19509025 -1.9807854 0.071805984
-0.38268343 -1.9238796 0.051806003
-0.38268343 -1.9238796 0.071805984
-0.5555703 -1.8314695 0.051806003
-0.5555703 -1.8314695 0.071805984
-0.70710677 -1.7071068 0.051806003
-0.70710677 -1.7071068 0.071805984
-0.83146954 -1.5555704 0.051806003
-0.83146954 -1.5555704 0.071805984
-0.92387956 -1.3826835 0.051806003
-0.92387956 -1.3826835 0.071805984
-0.98078531 -1.1950904 0.051806003
-0.98078531 -1.1950904 0.071805984
-1 -1 0.051806003
-1 -1 0.071805984
-0.98078531 -0.80490959 0.051806003
-0.98078531 -0.80490959 0.071805984
-0.9238795 -0.61731637 0.051806003
-0.9238795 -0.61731637 0.071805984
-0.83146977 -0.44442993 0.051806003
-0.83146977 -0.44442993 0.071805984
-0.70710689 -0.29289329 0.051806003
-0.70710689 -0.29289329 0.071805984
-0.5555703 -0.16853034 0.051806003
-0.5555703 -0.16853034 0.071805984
-0.38268343 -0.076120377 0.051806003
-0.38268343 -0.076120377 0.071805984
-0.19509023 -0.01921469 0.051806003
-0.19509023 -0.01921469 0.071805984
0 0 0.076806098
0 0 0.096806079
0.19509032 -0.01921469 0.076806098
0.19509032 -0.01921469 0.096806079
0.38268346 -0.076120436 0.076806098
0.38268346 -0.076120436 0.096806079
0.55557024 -0.16853034 0.076806098
0.55557024 -0.16853034 0.096806079
0.70710683 -0.29289317 0.076806098
0.70710683 -0.29289317 0.096806079
0.83146966 -0.44442976 0.076806098
0.83146966 -0.44442976 0.096806079
0.92387956 -0.6173166 0.076806098
0.92387956 -0.6173166 0.096806079
0.98078531 -0.80490965 0.076806098
0.98078531 -0.80490965 0.096806079
1 -1 0.076806098
1 -1 0.096806079
0.98078531 -1.1950903 0.076806098
0.98078531 -1.1950903 0.096806079
0.92387962 -1.3826834 0.076806098
0.92387962 -1.3826834 0.096806079
0.83146971 -1.5555701 0.076806098
0.83146971 -1.5555701 0.096806079
0.70710683 -1.7071068 0.076806098
0.70710683 -1.7071068 0.096806079
0.55557019 -1.8314698 0.076806098
0.55557019 -1.8314698 0.096806079
0.38268349 -1.9238796 0.076806098
0.38268349 -1.9238796 0.096806079
0.19509031 -1.9807854 0.076806098
0.19509031 -1.9807854 0.096806079
-8.7422784e-08 -2 0.076806098
-8.7422784e-08 -2 0.096806079
-0.19509025 -1.9807854 0.076806098
-0.19509025 -1.9807854 0.096806079
-0.38268343 -1.9238796 0.076806098
-0.38268343 -1.9238796 0.096806079
-0.5555703 -1.8314695 0.076806098
-0.5555703 -1.8314695 0.096806079
-0.70710677 -1.7071068 0.076806098
-0.70710677 -1.7071068 0.096806079
-0.83146954 -1.5555704 0.076806098
-0.83146954 -1.5555704 0.096806079
-0.92387956 -1.3826835 0.076806098
-0.92387956 -1.3826835 0.096806079
-0.98078531 -1.1950904 0.076806098
-0.98078531 -1.1950904 0.096806079
-1 -1 0.076806098
-1 -1 0.096806079
-0.98078531 -0.80490959 0.076806098
-0.98078531 -0.80490959 0.096806079
-0.9238795 -0.61731637 0.076806098
-0.9238795 -0.61731637 0.096806079
-0.83146977 -0.44442993 0.076806098
-0.83146977 -0.44442993 0.096806079
-0.70710689 -0.29289329 0.076806098
-0.70710689 -0.29289329 0.096806079
-0.5555703 -0.16853034 0.076806098
-0.5555703 -0.16853034 0.096806079
-0.38268343 -0.076120377 0.076806098
-0.38268343 -0.076120377 0.096806079
-0.19509023 -0.01921469 0.076806098
-0.19509023 -0.01921469 0.096806079
0 0 0.10180607
0 0 0.12180606
0.19509032 -0.01921469 0.10180607
0.19509032 -0.01921469 0.12180606
0.38268346 -0.076120436 0.10180607
0.38268346 -0.076120436 0.12180606
0.55557024 -0.16853034 0.10180607
0.55557024 -0.16853034 0.12180606
0.70710683 -0.29289317 0.10180607
0.70710683 -0.29289317 0.12180606
0.83146966 -0.44442976 0.10180607
0.83146966 -0.44442976 0.12180606
0.92387956 -0.6173166 0.10180607
0.92387956 -0.6173166 0.12180606
0.98078531 -0.80490965 0.10180607
0.98078531 -0.80490965 0.12180606
1 -1 0.10180607
1 -1 0.12180606
0.98078531 -1.1950903 0.10180607
0.98078531 -1.1950903 0.12180606
0.92387962 -1.3826834 0.10180607
0.92387962 -1.3826834 0.12180606
0.83146971 -1.5555701 0.10180607
0.83146971 -1.5555701 0.12180606
0.70710683 -1.7071068 0.10180607
0.70710683 -1.7071068 0.12180606
0.55557019 -1.8314698 0.10180607
0.55557019 -1.8314698 0.12180606
0.38268349 -1.9238796 0.10180607
0.38268349 -1.9238796 0.12180606
0.19509031 -1.9807854 0.10180607
0.19509031 -1.9807854 0.12180606
-8.7422784e-08 -2 0.10180607
-8.7422784e-08 -2 0.12180606
-0.19509025 -1.9807854 0.10180607
-0.19509025 -1.9807854 0.12180606
-0.38268343 -1.9238796 0.10180607
-0.38268343 -1.9238796 0.12180606
-0.5555703 -1.8314695 0.10180607
-0.5555703 -1.8314695 0.12180606
-0.70710677 -1.7071068 0.10180607
-0.70710677 -1.7071068 0.12180606
-0.83146954 -1.5555704 0.10180607
-0.83146954 -1.5555704 0.12180606
-0.92387956 -1.3826835 0.10180607
-0.92387956 -1.3826835 0.12180606
-0.98078531 -1.1950904 0.10180607
-0.98078531 -1.1950904 0.12180606
-1 -1 0.10180607
-1 -1 0.12180606
-0.98078531 -0.80490959 0.10180607
-0.98078531 -0.80490959 0.12180606
-0.9238795 -0.61731637 0.10180607
-0.9238795 -0.61731637 0.12180606
-0.83146977 -0.44442993 0.10180607
-0.83146977 -0.44442993 0.12180606
-0.70710689 -0.29289329 0.10180607
-0.70710689 -0.29289329 0.12180606
-0.5555703 -0.16853034 0.10180607
-0.5555703 -0.16853034 0.12180606
-0.38268343 -0.076120377 0.10180607
-0.38268343 -0.076120377 0.12180606
-0.19509023 -0.01921469 0.10180607
-0.19509023 -0.01921469 0.12180606
0 0 0.12680605
0 0 0.14680603
0.19509032 -0.01921469 0.12680605
0.19509032 -0.01921469 0.14680603
0.38268346 -0.076120436 0.12680605
0.38268346 -0.076120436 0.14680603
0.55557024 -0.16853034 0.12680605
0.55557024 -0.16853034 0.14680603
0.70710683 -0.29289317 0.12680605
0.70710683 -0.29289317 0.14680603
0.83146966 -0.44442976 0.12680605
0.83146966 -0.44442976 0.14680603
0.92387956 -0.6173166 0.12680605
0.92387956 -0.6173166 0.14680603
0.98078531 -0.80490965 0.12680605
0.98078531 -0.80490965 0.14680603
1 -1 0.12680605
1 -1 0.14680603
0.98078531 -1.1950903 0.12680605
0.98078531 -1.1950903 0.14680603
0.92387962 -1.3826834 0.12680605
0.92387962 -1.3826834 0.14680603
0.83146971 -1.5555701 0.12680605
0.83146971 -1.5555701 0.14680603
0.70710683 -1.7071068 0.12680605
0.70710683 -1.7071068 0.14680603
0.55557019 -1.8314698 0.12680605
0.55557019 -1.8314698 0.14680603
0.38268349 -1.9238796 0.12680605
0.38268349 -1.9238796 0.14680603
0.19509031 -1.9807854 0.12680605
0.19509031 -1.9807854 0.14680603
-8.7422784e-08 -2 0.12680605
-8.7422784e-08 -2 0.14680603
-0.19509025 -1.9807854 0.12680605
-0.19509025 -1.9807854 0.14680603
-0.38268343 -1.9238796 0.12680605
-0.38268343 -1.9238796 0.14680603
-0.5555703 -1.8314695 0.12680605
-0.5555703 -1.8314695 0.14680603
-0.70710677 -1.7071068 0.12680605
-0.70710677 -1.7071068 0.14680603
-0.83146954 -1.5555704 0.12680605
-0.83146954 -1.5555704 0.14680603
-0.92387956 -1.3826835 0.12680605
-0.92387956 -1.3826835 0.14680603
-0.98078531 -1.1950904 0.12680605
-0.98078531 -1.1950904 0.14680603
-1 -1 0.12680605
-1 -1 0.14680603
-0.98078531 -0.80490959 0.12680605
-0.98078531 -0.80490959 0.14680603
-0.9238795 -0.61731637 0.12680605
-0.9238795 -0.61731637 0.14680603
-0.83146977 -0.44442993 0.12680605
-0.83146977 -0.44442993 0.14680603
-0.70710689 -0.29289329 0.12680605
-0.70710689 -0.29289329 0.14680603
-0.5555703 -0.16853034 0.12680605
-0.5555703 -0.16853034 0.14680603
-0.38268343 -0.076120377 0.12680605
-0.38268343 -0.076120377 0.14680603
-0.19509023 -0.01921469 0.12680605
-0.19509023 -0.01921469 0.14680603
0 0 0.15180603
0 0 0.17180602
0.19509032 -0.01921469 0.15180603
0.19509032 -0.01921469 0.17180602
0.38268346 -0.076120436 0.15180603
0.38268346 -0.076120436 0.17180602
0.55557024 -0.16853034 0.15180603
0.55557024 -0.16853034 0.17180602
0.70710683 -0.29289317 0.15180603
0.70710683 -0.29289317 0.17180602
0.83146966 -0.44442976 0.15180603
0.83146966 -0.44442976 0.17180602
0.92387956 -0.6173166 0.15180603
0.92387956 -0.6173166 0.17180602
0.98078531 -0.80490965 0.15180603
0.98078531 -0.80490965 0.17180602
1 -1 0.15180603
1 -1 0.17180602
0.98078531 -1.1950903 0.15180603
0.98078531 -1.1950903 0.17180602
0.92387962 -1.3826834 0.15180603
0.92387962 -1.3826834 0.17180602
0.83146971 -1.5555701 0.15180603
0.83146971 -1.5555701 0.17180602
0.70710683 -1.7071068 0.15180603
0.70710683 -1.7071068 0.17180602
0.55557019 -1.8314698 0.15180603
0.55557019 -1.8314698 0.17180602
0.38268349 -1.9238796 0.15180603
0.38268349 -1.9238796 0.17180602
0.19509031 -1.9807854 0.15180603
0.19509031 -1.9807854 0.17180602
-8.7422784e-08 -2 0.15180603
-8.7422784e-08 -2 0.17180602
-0.19509025 -1.9807854 0.15180603
-0.19509025 -1.9807854 0.17180602
-0.38268343 -1.9238796 0.15180603
-0.38268343 -1.9238796 0.17180602
-0.5555703 -1.8314695 0.15180603
-0.5555703 -1.8314695 0.17180602
-0.70710677 -1.7071068 0.15180603
-0.70710677 -1.7071068 0.17180602
-0.83146954 -1.5555704 0.15180603
-0.83146954 -1.5555704 0.17180602
-0.92387956 -1.3826835 0.15180603
-0.92387956 -1.3826835 0.17180602
-0.98078531 -1.1950904 0.15180603
-0.98078531 -1.1950904 0.17180602
-1 -1 0.15180603
-1 -1 0.17180602
-0.98078531 -0.80490959 0.15180603
-0.98078531 -0.80490959 0.17180602
-0.9238795 -0.61731637 0.15180603
-0.9238795 -0.61731637 0.17180602
-0.83146977 -0.44442993 0.15180603
-0.83146977 -0.44442993 0.17180602
-0.70710689 -0.29289329 0.15180603
-0.70710689 -0.29289329 0.17180602
-0.5555703 -0.16853034 0.15180603
-0.5555703 -0.16853034 0.17180602
-0.38268343 -0.076120377 0.15180603
-0.38268343 -0.076120377 0.17180602
-0.19509023 -0.01921469 0.15180603
-0.19509023 -0.01921469 0.17180602
0 0 0.17680599
0 0 0.196806
0.19509032 -0.01921469 0.17680599
0.19509032 -0.01921469 0.196806
0.38268346 -0.076120436 0.17680599
0.38268346 -0.076120436 0.196806
0.55557024 -0.16853034 0.17680599
0.55557024 -0.16853034 0.196806
0.70710683 -0.29289317 0.17680599
0.70710683 -0.29289317 0.196806
0.83146966 -0.44442976 0.17680599
0.83146966 -0.44442976 0.196806
0.92387956 -0.6173166 0.17680599
0.92387956 -0.6173166 0.196806
0.98078531 -0.80490965 0.17680599
0.98078531 -0.80490965 0.196806
1 -1 0.17680599
1 -1 0.196806
0.98078531 -1.1950903 0.17680599
0.98078531 -1.1950903 0.196806
0.92387962 -1.3826834 0.17680599
0.92387962 -1.3826834 0.196806
0.83146971 -1.5555701 0.17680599
0.83146971 -1.5555701 0.196806
0.70710683 -1.7071068 0.17680599
0.70710683 -1.7071068 0.196806
0.55557019 -1.8314698 0.17680599
0.55557019 -1.8314698 0.196806
0.38268349 -1.9238796 0.17680599
0.38268349 -1.9238796 0.196806
0.19509031 -1.9807854 0.17680599
0.19509031 -1.9807854 0.196806
-8.7422784e-08 -2 0.17680599
-8.7422784e-08 -2 0.196806
-0.19509025 -1.9807854 0.17680599
-0.19509025 -1.9807854 0.196806
-0.38268343 -1.9238796 0.17680599
-0.38268343 -1.9238796 0.196806
-0.5555703 -1.8314695 0.17680599
-0.5555703 -1.8314695 0.196806
-0.70710677 -1.7071068 0.17680599
-0.70710677 -1.7071068 0.196806
-0.83146954 -1.5555704 0.17680599
-0.83146954 -1.5555704 0.196806
-0.92387956 -1.3826835 0.17680599
-0.92387956 -1.3826835 0.196806
-0.98078531 -1.1950904 0.17680599
-0.98078531 -1.1950904 0.196806
-1 -1 0.17680599
-1 -1 0.196806
-0.98078531 -0.80490959 0.17680599
-0.98078531 -0.80490959 0.196806
-0.9238795 -0.61731637 0.17680599
-0.9238795 -0.61731637 0.196806
-0.83146977 -0.44442993 0.17680599
-0.83146977 -0.44442993 0.196806
-0.70710689 -0.29289329 0.17680599
-0.70710689 -0.29289329 0.196806
-0.5555703 -0.16853034 0.17680599
-0.5555703 -0.16853034 0.196806
-0.38268343 -0.076120377 0.17680599
-0.38268343 -0.076120377 0.196806
-0.19509023 -0.01921469 0.17680599
-0.19509023 -0.01921469 0.196806
0 0 0.20180608
0 0 0.22180609
0.19509032 -0.01921469 0.20180608
0.19509032 -0.01921469 0.22180609
0.38268346 -0.076120436 0.20180608
0.38268346 -0.076120436 0.22180609
0.55557024 -0.16853034 0.20180608
0.55557024 -0.16853034 0.22180609
0.70710683 -0.29289317 0.20180608
0.70710683 -0.29289317 0.22180609
0.83146966 -0.44442976 0.20180608
0.83146966 -0.44442976 0.22180609
0.92387956 -0.6173166 0.20180608
0.92387956 -0.6173166 0.22180609
0.98078531 -0.80490965 0.20180608
0.98078531 -0.80490965 0.22180609
1 -1 0.20180608
1 -1 0.22180609
0.98078531 -1.1950903 0.20180608
0.98078531 -1.1950903 0.22180609
0.92387962 -1.3826834 0.20180608
0.92387962 -1.3826834 0.22180609
0.83146971 -1.5555701 0.20180608
0.83146971 -1.5555701 0.22180609
0.70710683 -1.7071068 0.20180608
0.70710683 -1.7071068 0.22180609
0.55557019 -1.8314698 0.20180608
0.55557019 -1.8314698 0.22180609
0.38268349 -1.9238796 0.20180608
0.38268349 -1.9238796 0.22180609
0.19509031 -1.9807854 0.20180608
0.19509031 -1.9807854 0.22180609
-8.7422784e-08 -2 0.20180608
-8.7422784e-08 -2 0.22180609
-0.19509025 -1.9807854 0.20180608
-0.19509025 -1.9807854 0.22180609
-0.38268343 -1.9238796 0.20180608
-0.38268343 -1.9238796 0.22180609
-0.5555703 -1.8314695 0.20180608
-0.5555703 -1.8314695 0.22180609
-0.70710677 -1.7071068 0.20180608
-0.70710677 -1.7071068 0.22180609
-0.83146954 -1.5555704 0.20180608
-0.83146954 -1.5555704 0.22180609
-0.92387956 -1.3826835 0.20180608
-0.92387956 -1.3826835 0.22180609
-0.98078531 -1.1950904 0.20180608
-0.98078531 -1.1950904 0.22180609
-1 -1 0.20180608
-1 -1 0.22180609
-0.98078531 -0.80490959 0.20180608
-0.98078531 -0.80490959 0.22180609
-0.9238795 -0.61731637 0.20180608
-0.9238795 -0.61731637 0.22180609
-0.83146977 -0.44442993 0.20180608
-0.83146977 -0.44442993 0.22180609
-0.70710689 -0.29289329 0.20180608
-0.70710689 -0.29289329 0.22180609
-0.5555703 -0.16853034 0.20180608
-0.5555703 -0.16853034 0.22180609
-0.38268343 -0.076120377 0.20180608
-0.38268343 -0.076120377 0.22180609
-0.19509023 -0.01921469 0.20180608
-0.19509023 -0.01921469 0.22180609
0 0 0.22680606
0 0 0.24680607
0.19509032 -0.01921469 0.22680606
0.19509032 -0.01921469 0.24680607
0.38268346 -0.076120436 0.22680606
0.38268346 -0.076120436 0.24680607
0.55557024 -0.16853034 0.22680606
0.55557024 -0.16853034 0.24680607
0.70710683 -0.29289317 0.22680606
0.70710683 -0.29289317 0.24680607
0.83146966 -0.44442976 0.22680606
0.83146966 -0.44442976 0.24680607
0.92387956 -0.6173166 0.22680606
0.92387956 -0.6173166 0.24680607
0.98078531 -0.80490965 0.22680606
0.98078531 -0.80490965 0.24680607
1 -1 0.22680606
1 -1 0.24680607
0.98078531 -1.1950903 0.22680606
0.98078531 -1.1950903 0.24680607
0.92387962 -1.3826834 0.22680606
0.92387962 -1.3826834 0.24680607
0.83146971 -1.5555701 0.22680606
0.83146971 -1.5555701 0.24680607
0.70710683 -1.7071068 0.22680606
0.70710683 -1.7071068 0.24680607
0.55557019 -1.8314698 0.22680606
0.55557019 -1.8314698 0.24680607
0.38268349 -1.9238796 0.22680606
0.38268349 -1.9238796 0.24680607
0.19509031 -1.9807854 0.22680606
0.19509031 -1.9807854 0.24680607
-8.7422784e-08 -2 0.22680606
-8.7422784e-08 -2 0.24680607
-0.19509025 -1.9807854 0.22680606
-0.19509025 -1.9807854 0.24680607
-0.38268343 -1.9238796 0.22680606
-0.38268343 -1.9238796 0.24680607
-0.5555703 -1.8314695 0.22680606
-0.5555703 -1.8314695 0.24680607
-0.70710677 -1.7071068 0.22680606
-0.70710677 -1.7071068 0.24680607
-0.83146954 -1.5555704 0.22680606
-0.83146954 -1.5555704 0.24680607
-0.92387956 -1.3826835 0.22680606
-0.92387956 -1.3826835 0.24680607
-0.98078531 -1.1950904 0.22680606
-0.98078531 -1.1950904 0.24680607
-1 -1 0.22680606
-1 -1 0.24680607
-0.98078531 -0.80490959 0.22680606
-0.98078531 -0.80490959 0.24680607
-0.9238795 -0.61731637 0.22680606
-0.9238795 -0.61731637 0.24680607
-0.83146977 -0.44442993 0.22680606
-0.83146977 -0.44442993 0.24680607
-0.70710689 -0.29289329 0.22680606
-0.70710689 -0.29289329 0.24680607
-0.5555703 -0.16853034 0.22680606
-0.5555703 -0.16853034 0.24680607
-0.38268343 -0.076120377 0.22680606
-0.38268343 -0.076120377 0.24680607
-0.19509023 -0.01921469 0.22680606
-0.19509023 -0.01921469 0.24680607
0 0 0.25180602
0 0 0.27180606
0.19509032 -0.01921469 0.25180602
0.19509032 -0.01921469 0.27180606
0.38268346 -0.076120436 0.25180602
0.38268346 -0.076120436 0.27180606
0.55557024 -0.16853034 0.25180602
0.55557024 -0.16853034 0.27180606
0.70710683 -0.29289317 0.25180602
0.70710683 -0.29289317 0.27180606
0.83146966 -0.44442976 0.25180602
0.83146966 -0.44442976 0.27180606
0.92387956 -0.6173166 0.25180602
0.92387956 -0.6173166 0.27180606
0.98078531 -0.80490965 0.25180602
0.98078531 -0.80490965 0.27180606
1 -1 0.25180602
1 -1 0.27180606
0.98078531 -1.1950903 0.25180602
0.98078531 -1.1950903 0.27180606
0.92387962 -1.3826834 0.25180602
0.92387962 -1.3826834 0.27180606
0.83146971 -1.5555701 0.25180602
0.83146971 -1.5555701 0.27180606
0.70710683 -1.7071068 0.25180602
0.70710683 -1.7071068 0.27180606
0.55557019 -1.8314698 0.25180602
0.55557019 -1.8314698 0.27180606
0.38268349 -1.9238796 0.25180602
0.38268349 -1.9238796 0.27180606
0.19509031 -1.9807854 0.25180602
0.19509031 -1.9807854 0.27180606
-8.7422784e-08 -2 0.25180602
-8.7422784e-08 -2 0.27180606
-0.19509025 -1.9807854 0.25180602
-0.19509025 -1.9807854 0.27180606
-0.38268343 -1.9238796 0.25180602
-0.38268343 -1.9238796 0.27180606
-0.5555703 -1.8314695 0.25180602
-0.5555703 -1.8314695 0.27180606
-0.70710677 -1.7071068 0.25180602
-0.70710677 -1.7071068 0.27180606
-0.83146954 -1.5555704 0.25180602
-0.83146954 -1.5555704 0.27180606
-0.92387956 -1.3826835 0.25180602
-0.92387956 -1.3826835 0.27180606
-0.98078531 -1.1950904 0.25180602
-0.98078531 -1.1950904 0.27180606
-1 -1 0.25180602
-1 -1 0.27180606
-0.98078531 -0.80490959 0.25180602
-0.98078531 -0.80490959 0.27180606
-0.9238795 -0.61731637 0.25180602
-0.9238795 -0.61731637 0.27180606
-0.83146977 -0.44442993 0.25180602
-0.83146977 -0.44442993 0.27180606
-0.70710689 -0.29289329 0.25180602
-0.70710689 -0.29289329 0.27180606
-0.5555703 -0.16853034 0.25180602
-0.5555703 -0.16853034 0.27180606
-0.38268343 -0.076120377 0.25180602
-0.38268343 -0.076120377 0.27180606
-0.19509023 -0.01921469 0.25180602
-0.19509023 -0.01921469 0.27180606
0 0 0.276806
0 0 0.29680601
0.19509032 -0.01921469 0.276806
0.19509032 -0.01921469 0.29680601
0.38268346 -0.076120436 0.276806
0.38268346 -0.076120436 0.29680601
0.55557024 -0.16853034 0.276806
0.55557024 -0.16853034 0.29680601
0.70710683 -0.29289317 0.276806
0.70710683 -0.29289317 0.29680601
0.83146966 -0.44442976 0.276806
0.83146966 -0.44442976 0.29680601
0.92387956 -0.6173166 0.276806
0.92387956 -0.6173166 0.29680601
0.98078531 -0.80490965 0.276806
0.98078531 -0.80490965 0.29680601
1 -1 0.276806
1 -1 0.29680601
0.98078531 -1.1950903 0.276806
0.98078531 -1.1950903 0.29680601
0.92387962 -1.3826834 0.276806
0.92387962 -1.3826834 0.29680601
0.83146971 -1.5555701 0.276806
0.83146971 -1.5555701 0.29680601
0.70710683 -1.7071068 0.276806
0.70710683 -1.7071068 0.29680601
0.55557019 -1.8314698 0.276806
0.55557019 -1.8314698 0.29680601
0.38268349 -1.9238796 0.276806
0.38268349 -1.9238796 0.29680601
0.19509031 -1.9807854 0.276806
0.19509031 -1.9807854 0.29680601
-8.7422784e-08 -2 0.276806
-8.7422784e-08 -2 0.29680601
-0.19509025 -1.9807854 0.276806
-0.19509025 -1.9807854 0.29680601
-0.38268343 -1.9238796 0.276806
-0.38268343 -1.9238796 0.29680601
-0.5555703 -1.8314695 0.276806
-0.5555703 -1.8314695 0.29680601
-0.70710677 -1.7071068 0.276806
-0.70710677 -1.7071068 0.29680601
-0.83146954 -1.5555704 0.276806
-0.83146954 -1.5555704 0.29680601
-0.92387956 -1.3826835 0.276806
-0.92387956 -1.3826835 0.29680601
-0.98078531 -1.1950904 0.276806
-0.98078531 -1.1950904 0.29680601
-1 -1 0.276806
-1 -1 0.29680601
-0.98078531 -0.80490959 0.276806
-0.98078531 -0.80490959 0.29680601
-0.9238795 -0.61731637 0.276806
-0.9238795 -0.61731637 0.29680601
-0.83146977 -0.44442993 0.276806
-0.83146977 -0.44442993 0.29680601
-0.70710689 -0.29289329 0.276806
-0.70710689 -0.29289329 0.29680601
-0.5555703 -0.16853034 0.276806
-0.5555703 -0.16853034 0.29680601
-0.38268343 -0.076120377 0.276806
-0.38268343 -0.076120377 0.29680601
-0.19509023 -0.01921469 0.276806
-0.19509023 -0.01921469 0.29680601
0 -2.9802322e-07 0.301806
0 -2.9802322e-07 0.32180598
0.19509032 -0.019215047 0.301806
0.19509032 -0.019215047 0.32180598
0.38268346 -0.076120794 0.301806
0.38268346 -0.076120794 0.32180598
0.55557024 -0.1685307 0.301806
0.55557024 -0.1685307 0.32180598
0.70710683 -0.29289353 0.301806
0.70710683 -0.29289353 0.32180598
0.83146966 -0.44443011 0.301806
0.83146966 -0.44443011 0.32180598
0.92387956 -0.6173169 0.301806
0.92387956 -0.6173169 0.32180598
0.98078531 -0.80491 0.301806
0.98078531 -0.80491 0.32180598
1 -1.0000004 0.301806
1 -1.0000004 0.32180598
0.98078531 -1.1950907 0.301806
0.98078531 -1.1950907 0.32180598
0.92387962 -1.3826838 0.301806
0.92387962 -1.3826838 0.32180598
0.83146971 -1.5555706 0.301806
0.83146971 -1.5555706 0.32180598
0.70710683 -1.7071071 0.301806
0.70710683 -1.7071071 0.32180598
0.55557019 -1.83147 0.301806
0.55557019 -1.83147 0.32180598
0.38268349 -1.9238799 0.301806
0.38268349 -1.9238799 0.32180598
0.19509031 -1.9807856 0.301806
0.19509031 -1.9807856 0.32180598
-8.7422784e-08 -2.0000005 0.301806
-8.7422784e-08 -2.0000005 0.32180598
-0.19509025 -1.9807856 0.301806
-0.19509025 -1.9807856 0.32180598
-0.38268343 -1.9238799 0.301806
-0.38268343 -1.9238799 0.32180598
-0.5555703 -1.8314699 0.301806
-0.5555703 -1.8314699 0.32180598
-0.70710677 -1.7071072 0.301806
-0.70710677 -1.7071072 0.32180598
-0.83146954 -1.5555708 0.301806
-0.83146954 -1.5555708 0.32180598
-0.92387956 -1.3826839 0.301806
-0.92387956 -1.3826839 0.32180598
-0.98078531 -1.1950908 0.301806
-0.98078531 -1.1950908 0.32180598
-1 -1.0000004 0.301806
-1 -1.0000004 0.32180598
-0.98078531 -0.80490994 0.301806
-0.98078531 -0.80490994 0.32180598
-0.9238795 -0.61731672 0.301806
-0.9238795 -0.61731672 0.32180598
-0.83146977 -0.44443029 0.301806
-0.83146977 -0.44443029 0.32180598
-0.70710689 -0.29289365 0.301806
-0.70710689 -0.29289365 0.32180598
-0.5555703 -0.1685307 0.301806
-0.5555703 -0.1685307 0.32180598
-0.38268343 -0.076120734 0.301806
-0.38268343 -0.076120734 0.32180598
-0.19509023 -0.019215047 0.301806
-0.19509023 -0.019215047 0.32180598
0 0 0.3268061
0 0 0.34680608
0.19509032 -0.01921469 0.3268061
0.19509032 -0.01921469 0.34680608
0.38268346 -0.076120436 0.3268061
0.38268346 -0.076120436 0.34680608
0.55557024 -0.16853034 0.3268061
0.55557024 -0.16853034 0.34680608
0.70710683 -0.29289317 0.3268061
0.70710683 -0.29289317 0.34680608
0.83146966 -0.44442976 0.3268061
0.83146966 -0.44442976 0.34680608
0.92387956 -0.6173166 0.3268061
0.92387956 -0.6173166 0.34680608
0.98078531 -0.80490965 0.3268061
0.98078531 -0.80490965 0.34680608
1 -1 0.3268061
1 -1 0.34680608
0.98078531 -1.1950903 0.3268061
0.98078531 -1.1950903 0.34680608
0.92387962 -1.3826834 0.3268061
0.92387962 -1.3826834 0.34680608
0.83146971 -1.5555701 0.3268061
0.83146971 -1.5555701 0.34680608
0.70710683 -1.7071068 0.3268061
0.70710683 -1.7071068 0.34680608
0.55557019 -1.8314698 0.3268061
0.55557019 -1.8314698 0.34680608
0.38268349 -1.9238796 0.3268061
0.38268349 -1.9238796 0.34680608
0.19509031 -1.9807854 0.3268061
0.19509031 -1.9807854 0.34680608
-8.7422784e-08 -2 0.3268061
-8.7422784e-08 -2 0.34680608
-0.19509025 -1.9807854 0.3268061
-0.19509025 -1.9807854 0.34680608
-0.38268343 -1.9238796 0.3268061
-0.38268343 -1.9238796 0.34680608
-0.5555703 -1.8314695 0.3268061
-0.5555703 -1.8314695 0.34680608
-0.70710677 -1.7071068 0.3268061
-0.70710677 -1.7071068 0.34680608
-0.83146954 -1.5555704 0.3268061
-0.83146954 -1.5555704 0.34680608
-0.92387956 -1.3826835 0.3268061
-0.92387956 -1.3826835 0.34680608
-0.98078531 -1.1950904 0.3268061
-0.98078531 -1.1950904 0.34680608
-1 -1 0.3268061
-1 -1 0.34680608
-0.98078531 -0.80490959 0.3268061
-0.98078531 -0.80490959 0.34680608
-0.9238795 -0.61731637 0.3268061
-0.9238795 -0.61731637 0.34680608
-0.83146977 -0.44442993 0.3268061
-0.83146977 -0.44442993 0.34680608
-0.70710689 -0.29289329 0.3268061
-0.70710689 -0.29289329 0.34680608
-0.5555703 -0.16853034 0.3268061
-0.5555703 -0.16853034 0.34680608
-0.38268343 -0.076120377 0.3268061
-0.38268343 -0.076120377 0.34680608
-0.19509023 -0.01921469 0.3268061
-0.19509023 -0.01921469 0.34680608
0 0 0.35180607
0 0 0.37180606
0.19509032 -0.01921469 0.35180607
0.19509032 -0.01921469 0.37180606
0.38268346 -0.076120436 0.35180607
0.38268346 -0.076120436 0.37180606
0.55557024 -0.16853034 0.35180607
0.55557024 -0.16853034 0.37180606
0.70710683 -0.29289317 0.35180607
0.70710683 -0.29289317 0.37180606
0.83146966 -0.44442976 0.35180607
0.83146966 -0.44442976 0.37180606
0.92387956 -0.6173166 0.35180607
0.92387956 -0.6173166 0.37180606
0.98078531 -0.80490965 0.35180607
0.98078531 -0.80490965 0.37180606
1 -1 0.35180607
1 -1 0.37180606
0.98078531 -1.1950903 0.35180607
0.98078531 -1.1950903 0.37180606
0.92387962 -1.3826834 0.35180607
0.92387962 -1.3826834 0.37180606
0.83146971 -1.5555701 0.35180607
0.83146971 -1.5555701 0.37180606
0.70710683 -1.7071068 0.35180607
0.70710683 -1.7071068 0.37180606
0.55557019 -1.8314698 0.35180607
0.55557019 -1.8314698 0.37180606
0.38268349 -1.9238796 0.35180607
0.38268349 -1.9238796 0.37180606
0.19509031 -1.9807854 0.35180607
0.19509031 -1.9807854 0.37180606
-8.7422784e-08 -2 0.35180607
-8.7422784e-08 -2 0.37180606
-0.19509025 -1.9807854 0.35180607
-0.19509025 -1.9807854 0.37180606
-0.38268343 -1.9238796 0.35180607
-0.38268343 -1.9238796 0.37180606
-0.5555703 -1.8314695 0.35180607
-0.5555703 -1.8314695 0.37180606
-0.70710677 -1.7071068 0.35180607
-0.70710677 -1.7071068 0.37180606
-0.83146954 -1.5555704 0.35180607
-0.83146954 -1.5555704 0.37180606
-0.92387956 -1.3826835 0.35180607
-0.92387956 -1.3826835 0.37180606
-0.98078531 -1.1950904 0.35180607
-0.98078531 -1.1950904 0.37180606
-1 -1 0.35180607
-1 -1 0.37180606
-0.98078531 -0.80490959 0.35180607
-0.98078531 -0.80490959 0.37180606
-0.9238795 -0.61731637 0.35180607
-0.9238795 -0.61731637 0.37180606
-0.83146977 -0.44442993 0.35180607
-0.83146977 -0.44442993 0.37180606
-0.70710689 -0.29289329 0.35180607
-0.70710689 -0.29289329 0.37180606
-0.5555703 -0.16853034 0.35180607
-0.5555703 -0.16853034 0.37180606
-0.38268343 -0.076120377 0.35180607
-0.38268343 -0.076120377 0.37180606
-0.19509023 -0.01921469 0.35180607
-0.19509023 -0.01921469 0.37180606
0 0 0.37680605
0 0 0.39680603
0.19509032 -0.01921469 0.37680605
0.19509032 -0.01921469 0.39680603
0.38268346 -0.076120436 0.37680605
0.38268346 -0.076120436 0.39680603
0.55557024 -0.16853034 0.37680605
0.55557024 -0.16853034 0.39680603
0.70710683 -0.29289317 0.37680605
0.70710683 -0.29289317 0.39680603
0.83146966 -0.44442976 0.37680605
0.83146966 -0.44442976 0.39680603
0.92387956 -0.6173166 0.37680605
0.92387956 -0.6173166 0.39680603
0.98078531 -0.80490965 0.37680605
0.98078531 -0.80490965 0.39680603
1 -1 0.37680605
1 -1 0.39680603
0.98078531 -1.1950903 0.37680605
0.98078531 -1.1950903 0.39680603
0.92387962 -1.3826834 0.37680605
0.92387962 -1.3826834 0.39680603
0.83146971 -1.5555701 0.37680605
0.83146971 -1.5555701 0.39680603
0.70710683 -1.7071068 0.37680605
0.70710683 -1.7071068 0.39680603
0.55557019 -1.8314698 0.37680605
0.55557019 -1.8314698 0.39680603
0.38268349 -1.9238796 0.37680605
0.38268349 -1.9238796 0.39680603
0.19509031 -1.9807854 0.37680605
0.19509031 -1.9807854 0.39680603
-8.7422784e-08 -2 0.37680605
-8.7422784e-08 -2 0.39680603
-0.19509025 -1.9807854 0.37680605
-0.19509025 -1.9807854 0.39680603
-0.38268343 -1.9238796 0.37680605
-0.38268343 -1.9238796 0.39680603
-0.5555703 -1.8314695 0.37680605
-0.5555703 -1.8314695 0.39680603
-0.70710677 -1.7071068 0.37680605
-0.70710677 -1.7071068 0.39680603
-0.83146954 -1.5555704 0.37680605
-0.83146954 -1.5555704 0.39680603
-0.92387956 -1.3826835 0.37680605
-0.92387956 -1.3826835 0.39680603
-0.98078531 -1.1950904 0.37680605
-0.98078531 -1.1950904 0.39680603
-1 -1 0.37680605
-1 -1 0.39680603
-0.98078531 -0.80490959 0.37680605
-0.98078531 -0.80490959 0.39680603
-0.9238795 -0.61731637 0.37680605
-0.9238795 -0.61731637 0.39680603
-0.83146977 -0.44442993 0.37680605
-0.83146977 -0.44442993 0.39680603
-0.70710689 -0.29289329 0.37680605
-0.70710689 -0.29289329 0.39680603
-0.5555703 -0.16853034 0.37680605
-0.5555703 -0.16853034 0.39680603
-0.38268343 -0.076120377 0.37680605
-0.38268343 -0.076120377 0.39680603
-0.19509023 -0.01921469 0.37680605
-0.19509023 -0.01921469 0.39680603
0 0 0.40180603
0 0 0.42180601
0.19509032 -0.01921469 0.40180603
0.19509032 -0.01921469 0.42180601
0.38268346 -0.076120436 0.40180603
0.38268346 -0.076120436 0.42180601
0.55557024 -0.16853034 0.40180603
0.55557024 -0.16853034 0.42180601
0.70710683 -0.29289317 0.40180603
0.70710683 -0.29289317 0.42180601
0.83146966 -0.44442976 0.40180603
0.83146966 -0.44442976 0.42180601
0.92387956 -0.6173166 0.40180603
0.92387956 -0.6173166 0.42180601
0.98078531 -0.80490965 0.40180603
0.98078531 -0.80490965 0.42180601
1 -1 0.40180603
1 -1 0.42180601
0.98078531 -1.1950903 0.40180603
0.98078531 -1.1950903 0.42180601
0.92387962 -1.3826834 0.40180603
0.92387962 -1.3826834 0.42180601
0.83146971 -1.5555701 0.40180603
0.83146971 -1.5555701 0.42180601
0.70710683 -1.7071068 0.40180603
0.70710683 -1.7071068 0.42180601
0.55557019 -1.8314698 0.40180603
0.55557019 -1.8314698 0.42180601
0.38268349 -1.9238796 0.40180603
0.38268349 -1.9238796 0.42180601
0.19509031 -1.9807854 0.40180603
0.19509031 -1.9807854 0.42180601
-8.7422784e-08 -2 0.40180603
-8.7422784e-08 -2 0.42180601
-0.19509025 -1.9807854 0.40180603
-0.19509025 -1.9807854 0.42180601
-0.38268343 -1.9238796 0.40180603
-0.38268343 -1.9238796 0.42180601
-0.5555703 -1.8314695 0.40180603
-0.5555703 -1.8314695 0.42180601
-0.70710677 -1.7071068 0.40180603
-0.70710677 -1.7071068 0.42180601
-0.83146954 -1.5555704 0.40180603
-0.83146954 -1.5555704 0.42180601
-0.92387956 -1.3826835 0.40180603
-0.92387956 -1.3826835 0.42180601
-0.98078531 -1.1950904 0.40180603
-0.98078531 -1.1950904 0.42180601
-1 -1 0.40180603
-1 -1 0.42180601
-0.98078531 -0.80490959 0.40180603
-0.98078531 -0.80490959 0.42180601
-0.9238795 -0.61731637 0.40180603
-0.9238795 -0.61731637 0.42180601
-0.83146977 -0.44442993 0.40180603
-0.83146977 -0.44442993 0.42180601
-0.70710689 -0.29289329 0.40180603
-0.70710689 -0.29289329 0.42180601
-0.5555703 -0.16853034 0.40180603
-0.5555703 -0.16853034 0.42180601
-0.38268343 -0.076120377 0.40180603
-0.38268343 -0.076120377 0.42180601
-0.19509023 -0.01921469 0.40180603
-0.19509023 -0.01921469 0.42180601
-0.93926942 -1.3030872 0
-0.93926942 -1.2336626 0
-0.93926942 -1.0948133 0
-0.93926942 -0.95596415 0
-0.93926942 -0.88653952 0
-0.93926942 -0.74769026 0
-0.93926942 -0.67826569 0
-0.84532559 -1.4419365 0
-0.84532559 -0.60884106 0
-0.84532559 -0.53941643 0
-0.7513817 -1.7890594 0
-0.7513817 -1.6502101 0
-0.7513817 -1.5807855 0
-0.65743786 -1.7196348 0
-0.65743786 -1.6502101 0
-0.56349397 -1.7196348 0
-0.56349397 -0.2617178 0
-0.46954978 -1.9279087 0
-0.46954972 -1.858484 0
-0.46954972 -1.7890594 0
-0.46954942 -0.19229314 0
-0.46954942 -0.053443879 0
-0.37560588 -1.858484 0
-0.37560552 -0.12286851 0
-0.28166205 -1.9973333 0
-0.28166202 -1.9279087 0
-0.28166169 -0.12286851 0
-0.28166169 -0.053443879 0
-0.18771835 -2.0667579 0
-0.18771832 -1.9279087 0
-0.18771796 -0.053443879 0
-0.18771794 0.085405394 0
-0.093774393 -1.9279087 0
-0.093773991 -0.053443879 0
0.00016948208 -1.9279087 0
0.00016989186 -0.053443879 0
0.09411332 -1.9279087 0
0.094113678 -0.053443879 0
0.18805732 -2.0667579 0
0.18805736 -1.9279087 0
0.18805774 -0.053443879 0
0.18805774 0.085405394 0
0.2820012 -1.9973333 0
0.28200126 -1.9279087 0
0.28200155 -0.12286851 0
0.28200161 -0.053443879 0
0.28200161 0.015980765 0
0.37594509 -1.858484 0
0.37594545 -0.12286851 0
0.46988869 -1.858484 0
0.46988869 -1.7890594 0
0.46988869 -0.19229314 0
0.46988875 -0.053443879 0
0.56383258 -1.7890594 0
0.56383258 -1.7196348 0
0.56383258 -0.2617178 0
0.65777642 -1.7196348 0
0.65777642 -1.6502101 0
0.75172031 -1.7890594 0
0.75172031 -1.6502101 0
0.75172031 -1.5807855 0
0.8456642 -1.4419365 0
0.8456642 -0.60884106 0
0.8456642 -0.53941643 0
0.9396081 -1.3030872 0
0.9396081 -1.2336626 0
0.9396081 -1.0948133 0
0.9396081 -0.95596415 0
0.9396081 -0.88653952 0
0.9396081 -0.74769026 0
0.9396081 -0.67826569 0
