# .PCD v0.7 - Point Cloud Data file format
VERSION 0.7
FIELDS x y z
SIZE 4 4 4
TYPE F F F
COUNT 1 1 1
WIDTH 1514
HEIGHT 1
VIEWPOINT 0 0 0 1 0 0 0
POINTS 1514
DATA ascii
0.87768549 1.3635495 0.42180601
0.78989619 1.5277915 0.42180601
0.67175156 1.6717513 0.42180601
0.5277918 1.7898961 0.42180601
0.36354926 1.8776855 0.42180601
0.18533573 1.931746 0.42180601
0 1.5500001 0.42180601
-0.10729969 1.5394319 0.42180601
-0.21047592 1.5081338 0.42180601
-0.30556366 1.4573083 0.42180601
-0.38890874 1.3889087 0.42180601
-0.45730832 1.3055637 0.42180601
-0.50813377 1.2104759 0.42180601
-0.53943193 1.1072997 0.42180601
-0.55000007 1 0.42180601
-0.53943193 0.89270031 0.42180601
-0.50813383 0.78952414 0.42180601
-0.45730835 0.69443637 0.42180601
-0.38890874 0.61109126 0.42180601
-0.30556363 0.54269165 0.42180601
-0.21047594 0.49186623 0.42180601
-0.10729968 0.46056807 0.42180601
4.808253e-08 0.44999993 0.42180601
0.10729964 0.46056807 0.42180601
0.21047589 0.49186623 0.42180601
0.30556369 0.54269171 0.42180601
0.38890871 0.61109126 0.42180601
0.45730826 0.69443625 0.42180601
0.50813377 0.78952402 0.42180601
0.53943193 0.89270025 0.42180601
0.55000007 1 0.42180601
0.53943193 1.1072997 0.42180601
0.50813371 1.210476 0.42180601
0.45730838 1.3055636 0.42180601
0.38890883 1.3889086 0.42180601
0.30556369 1.4573083 0.42180601
0.21047589 1.5081339 0.42180601
0.10729963 1.5394319 0.42180601
0 1.9000001 0.42180601
-0.17558129 1.8827068 0.42180601
-0.34441513 1.8314915 0.42180601
-0.50001323 1.7483226 0.42180601
-0.63639611 1.6363962 0.42180601
-0.74832261 1.5000132 0.42180601
-0.83149153 1.3444151 0.42180601
-0.88270676 1.1755813 0.42180601
-0.90000004 0.99999994 0.42180601
-0.88270676 0.82441872 0.42180601
-0.83149159 0.65558493 0.42180601
-0.74832267 0.49998683 0.42180601
-0.63639611 0.36360389 0.42180601
-0.50001317 0.25167733 0.42180601
-0.34441516 0.16850847 0.42180601
-0.17558128 0.11729318 0.42180601
7.86805e-08 0.099999964 0.42180601
0.17558123 0.11729318 0.42180601
0.3444151 0.16850847 0.42180601
0.50001323 0.25167745 0.42180601
0.63639605 0.36360383 0.42180601
0.74832255 0.49998665 0.42180601
0.83149153 0.65558481 0.42180601
0.88270676 0.82441866 0.42180601
0.90000004 1 0.42180601
0.88270676 1.1755813 0.42180601
0.83149147 1.3444152 0.42180601
0.74832273 1.5000131 0.42180601
0.63639623 1.6363959 0.42180601
0.50001323 1.7483226 0.42180601
0.3444151 1.8314916 0.42180601
0.17558122 1.8827069 0.42180601
0 1.85 0.42180601
-0.16582678 1.8336675 0.42180601
-0.32528093 1.7852976 0.42180601
-0.47223473 1.7067492 0.42180601
-0.60104078 1.6010408 0.42180601
-0.70674914 1.4722347 0.42180601
-0.78529757 1.3252809 0.42180601
-0.83366752 1.1658268 0.42180601
-0.85000002 0.99999994 0.42180601
-0.83366752 0.8341732 0.42180601
-0.78529763 0.6747191 0.42180601
-0.7067492 0.52776527 0.42180601
-0.60104078 0.39895922 0.42180601
-0.4722347 0.2932508 0.42180601
-0.32528096 0.21470243 0.42180601
-0.16582677 0.16633242 0.42180601
7.4309362e-08 0.14999998 0.42180601
0.16582671 0.16633242 0.42180601
0.3252809 0.21470243 0.42180601
0.47223476 0.29325086 0.42180601
0.60104072 0.39895916 0.42180601
0.70674908 0.52776515 0.42180601
0.78529757 0.67471898 0.42180601
0.83366752 0.8341732 0.42180601
0.85000002 1 0.42180601
0.83366752 1.1658268 0.42180601
0.78529757 1.3252811 0.42180601
0.70674926 1.4722346 0.42180601
0.6010409 1.6010406 0.42180601
0.47223476 1.7067492 0.42180601
0.3252809 1.7852976 0.42180601
0.16582669 1.8336675 0.42180601
0 1.8000001 0.42180601
-0.15607227 1.7846283 0.42180601
-0.3061468 1.7391037 0.42180601
-0.44445622 1.6651757 0.42180601
-0.56568545 1.5656855 0.42180601
-0.66517574 1.4444562 0.42180601
-0.73910367 1.3061467 0.42180601
-0.78462827 1.1560723 0.42180601
-0.80000007 0.99999994 0.42180601
-0.78462827 0.84392774 0.42180601
-0.73910373 0.69385326 0.42180601
-0.66517574 0.55554384 0.42180601
-0.56568545 0.43431455 0.42180601
-0.44445616 0.33482426 0.42180601
-0.30614683 0.26089633 0.42180601
-0.15607226 0.21537173 0.42180601
6.9938224e-08 0.19999993 0.42180601
0.15607221 0.21537173 0.42180601
0.30614677 0.26089633 0.42180601
0.44445628 0.33482432 0.42180601
0.56568539 0.43431449 0.42180601
0.66517562 0.55554366 0.42180601
0.73910367 0.69385314 0.42180601
0.78462827 0.84392768 0.42180601
0.80000007 1 0.42180601
0.78462827 1.1560724 0.42180601
0.73910362 1.3061469 0.42180601
0.6651758 1.4444561 0.42180601
0.56568557 1.5656853 0.42180601
0.44445628 1.6651757 0.42180601
0.30614677 1.7391038 0.42180601
0.1560722 1.7846283 0.42180601
0 1.75 0.42180601
-0.14631775 1.7355889 0.42180601
-0.28701261 1.6929097 0.42180601
-0.41667771 1.6236022 0.42180601
-0.53033006 1.5303301 0.42180601
-0.62360221 1.4166777 0.42180601
-0.69290966 1.2870126 0.42180601
-0.73558891 1.1463177 0.42180601
-0.75 0.99999994 0.42180601
-0.73558891 0.85368228 0.42180601
-0.69290972 0.71298742 0.42180601
-0.62360227 0.58332235 0.42180601
-0.53033006 0.46966994 0.42180601
-0.41667765 0.37639773 0.42180601
-0.28701261 0.30709034 0.42180601
-0.14631774 0.26441103 0.42180601
6.5567086e-08 0.25 0.42180601
0.14631769 0.26441103 0.42180601
0.28701258 0.30709034 0.42180601
0.41667771 0.37639785 0.42180601
0.53033 0.46966988 0.42180601
0.62360209 0.58332217 0.42180601
0.69290966 0.7129873 0.42180601
0.73558891 0.85368222 0.42180601
0.75 1 0.42180601
0.73558891 1.1463178 0.42180601
0.6929096 1.2870127 0.42180601
0.62360233 1.4166776 0.42180601
0.53033018 1.5303299 0.42180601
0.41667771 1.6236022 0.42180601
0.28701258 1.6929097 0.42180601
0.14631768 1.735589 0.42180601
0 1.7 0.42180601
-0.13656321 1.6865497 0.42180601
-0.26787841 1.6467156 0.42180601
-0.38889915 1.5820286 0.42180601
-0.4949747 1.4949747 0.42180601
-0.58202869 1.3888991 0.42180601
-0.64671564 1.2678784 0.42180601
-0.68654966 1.1365633 0.42180601
-0.69999999 0.99999994 0.42180601
-0.68654966 0.86343682 0.42180601
-0.6467157 0.73212159 0.42180601
-0.58202875 0.61110091 0.42180601
-0.4949747 0.50502527 0.42180601
-0.38889912 0.41797125 0.42180601
-0.26787841 0.35328436 0.42180601
-0.13656321 0.31345028 0.42180601
6.1195941e-08 0.30000001 0.42180601
0.13656318 0.31345028 0.42180601
0.26787841 0.35328436 0.42180601
0.38889921 0.41797131 0.42180601
0.4949747 0.50502527 0.42180601
0.58202863 0.61110067 0.42180601
0.64671564 0.73212153 0.42180601
0.68654966 0.86343676 0.42180601
0.69999999 1 0.42180601
0.68654966 1.1365633 0.42180601
0.64671564 1.2678785 0.42180601
0.58202881 1.3888991 0.42180601
0.49497482 1.4949746 0.42180601
0.38889921 1.5820286 0.42180601
0.26787841 1.6467156 0.42180601
0.13656317 1.6865497 0.42180601
0 1.65 0.42180601
-0.12680872 1.6375104 0.42180601
-0.24874425 1.6005217 0.42180601
-0.36112067 1.5404553 0.42180601
-0.4596194 1.4596194 0.42180601
-0.54045528 1.3611207 0.42180601
-0.60052168 1.2487442 0.42180601
-0.63751042 1.1268088 0.42180601
-0.64999998 1 0.42180601
-0.63751042 0.8731913 0.42180601
-0.60052168 0.75125575 0.42180601
-0.54045528 0.63887936 0.42180601
-0.4596194 0.5403806 0.42180601
-0.36112064 0.45954472 0.42180601
-0.24874428 0.39947832 0.42180601
-0.1268087 0.36248952 0.42180601
5.6824803e-08 0.35000002 0.42180601
0.12680866 0.36248952 0.42180601
0.24874422 0.39947832 0.42180601
0.36112067 0.45954478 0.42180601
0.45961937 0.5403806 0.42180601
0.54045516 0.63887924 0.42180601
0.60052168 0.75125569 0.42180601
0.63751042 0.87319124 0.42180601
0.64999998 1 0.42180601
0.63751042 1.1268088 0.42180601
0.60052162 1.2487444 0.42180601
0.54045534 1.3611206 0.42180601
0.45961946 1.4596193 0.42180601
0.36112067 1.5404553 0.42180601
0.24874422 1.6005217 0.42180601
0.12680866 1.6375105 0.42180601
0 1.6 0.42180601
-0.11705419 1.5884712 0.42180601
-0.22961009 1.5543277 0.42180601
-0.33334216 1.4988818 0.42180601
-0.42426407 1.4242641 0.42180601
-0.49888179 1.3333422 0.42180601
-0.55432773 1.2296101 0.42180601
-0.58847117 1.1170542 0.42180601
-0.60000002 1 0.42180601
-0.58847117 0.88294578 0.42180601
-0.55432773 0.77038991 0.42180601
-0.49888179 0.66665787 0.42180601
-0.42426407 0.57573593 0.42180601
-0.33334213 0.50111818 0.42180601
-0.2296101 0.44567227 0.42180601
-0.11705419 0.41152877 0.42180601
5.2453668e-08 0.39999998 0.42180601
0.11705416 0.41152877 0.42180601
0.22961007 0.44567227 0.42180601
0.33334219 0.5011183 0.42180601
0.42426404 0.57573587 0.42180601
0.49888167 0.66665769 0.42180601
0.55432773 0.77038985 0.42180601
0.58847117 0.88294578 0.42180601
0.60000002 1 0.42180601
0.58847117 1.1170542 0.42180601
0.55432767 1.2296102 0.42180601
0.49888185 1.3333421 0.42180601
0.42426416 1.424264 0.42180601
0.33334219 1.4988818 0.42180601
0.22961007 1.5543277 0.42180601
0.11705415 1.5884712 0.42180601
0 1.5 0.42180601
-0.097545162 1.4903927 0.42180601
-0.19134173 1.4619398 0.42180601
-0.27778512 1.4157348 0.42180601
-0.35355341 1.3535534 0.42180601
-0.41573483 1.2777851 0.42180601
-0.46193978 1.1913418 0.42180601
-0.49039266 1.0975451 0.42180601
-0.5 1 0.42180601
-0.49039266 0.90245485 0.42180601
-0.46193981 0.8086583 0.42180601
-0.41573486 0.72221494 0.42180601
-0.35355341 0.64644659 0.42180601
-0.27778509 0.58426511 0.42180601
-0.19134174 0.53806019 0.42180601
-0.097545154 0.50960732 0.42180601
4.3711392e-08 0.5 0.42180601
0.097545125 0.50960732 0.42180601
0.19134171 0.53806019 0.42180601
0.27778515 0.58426523 0.42180601
0.35355338 0.64644659 0.42180601
0.41573477 0.72221482 0.42180601
0.46193978 0.80865824 0.42180601
0.49039266 0.90245479 0.42180601
0.5 1 0.42180601
0.49039266 1.0975453 0.42180601
0.46193975 1.1913418 0.42180601
0.41573489 1.2777851 0.42180601
0.35355344 1.3535533 0.42180601
0.27778515 1.4157348 0.42180601
0.19134171 1.4619398 0.42180601
0.097545117 1.4903927 0.42180601
0 1.45 0.42180601
-0.087790646 1.4413533 0.42180601
-0.17220756 1.4157457 0.42180601
-0.25000662 1.3741612 0.42180601
-0.31819806 1.3181981 0.42180601
-0.3741613 1.2500067 0.42180601
-0.41574576 1.1722076 0.42180601
-0.44135338 1.0877906 0.42180601
-0.45000002 1 0.42180601
-0.44135338 0.91220933 0.42180601
-0.41574579 0.82779247 0.42180601
-0.37416133 0.74999344 0.42180601
-0.31819806 0.68180192 0.42180601
-0.25000659 0.62583864 0.42180601
-0.17220758 0.58425426 0.42180601
-0.087790638 0.55864656 0.42180601
3.934025e-08 0.54999995 0.42180601
0.087790616 0.55864656 0.42180601
0.17220755 0.58425426 0.42180601
0.25000662 0.62583876 0.42180601
0.31819803 0.68180192 0.42180601
0.37416127 0.74999332 0.42180601
0.41574576 0.82779241 0.42180601
0.44135338 0.91220933 0.42180601
0.45000002 1 0.42180601
0.44135338 1.0877907 0.42180601
0.41574574 1.1722076 0.42180601
0.37416136 1.2500066 0.42180601
0.31819811 1.318198 0.42180601
0.25000662 1.3741612 0.42180601
0.17220755 1.4157457 0.42180601
0.087790608 1.4413534 0.42180601
0 1.4000001 0.42180601
-0.078036137 1.3923142 0.42180601
-0.1530734 1.3695519 0.42180601
-0.22222811 1.3325878 0.42180601
-0.28284273 1.2828428 0.42180601
-0.33258787 1.2222281 0.42180601
-0.36955184 1.1530734 0.42180601
-0.39231414 1.0780362 0.42180601
-0.40000004 1 0.42180601
-0.39231414 0.92196387 0.42180601
-0.36955187 0.84692663 0.42180601
-0.33258787 0.77777195 0.42180601
-0.28284273 0.71715724 0.42180601
-0.22222808 0.66741216 0.42180601
-0.15307342 0.63044816 0.42180601
-0.078036129 0.60768586 0.42180601
3.4969112e-08 0.59999996 0.42180601
0.078036107 0.60768586 0.42180601
0.15307339 0.63044816 0.42180601
0.22222814 0.66741216 0.42180601
0.2828427 0.71715724 0.42180601
0.33258781 0.77777183 0.42180601
0.36955184 0.84692657 0.42180601
0.39231414 0.92196381 0.42180601
0.40000004 1 0.42180601
0.39231414 1.0780362 0.42180601
0.36955181 1.1530734 0.42180601
0.3325879 1.2222281 0.42180601
0.28284279 1.2828426 0.42180601
0.22222814 1.3325878 0.42180601
0.15307339 1.3695519 0.42180601
0.0780361 1.3923142 0.42180601
0 1.35 0.42180601
-0.068281606 1.3432748 0.42180601
-0.13393921 1.3233578 0.42180601
-0.19444957 1.2910143 0.42180601
-0.24748735 1.2474873 0.42180601
-0.29101434 1.1944495 0.42180601
-0.32335782 1.1339393 0.42180601
-0.34327483 1.0682817 0.42180601
-0.34999999 1 0.42180601
-0.34327483 0.93171841 0.42180601
-0.32335785 0.86606079 0.42180601
-0.29101437 0.80555046 0.42180601
-0.24748735 0.75251263 0.42180601
-0.19444956 0.70898563 0.42180601
-0.13393921 0.67664218 0.42180601
-0.068281606 0.65672517 0.42180601
3.059797e-08 0.64999998 0.42180601
0.068281591 0.65672517 0.42180601
0.13393921 0.67664218 0.42180601
0.1944496 0.70898569 0.42180601
0.24748735 0.75251263 0.42180601
0.29101431 0.80555034 0.42180601
0.32335782 0.86606073 0.42180601
0.34327483 0.93171835 0.42180601
0.34999999 1 0.42180601
0.34327483 1.0682817 0.42180601
0.32335782 1.1339393 0.42180601
0.2910144 1.1944495 0.42180601
0.24748741 1.2474873 0.42180601
0.1944496 1.2910143 0.42180601
0.13393921 1.3233578 0.42180601
0.068281583 1.3432748 0.42180601
0 1.3 0.42180601
-0.058527097 1.2942356 0.42180601
-0.11480504 1.2771639 0.42180601
-0.16667108 1.2494409 0.42180601
-0.21213204 1.212132 0.42180601
-0.24944089 1.166671 0.42180601
-0.27716386 1.114805 0.42180601
-0.29423559 1.0585271 0.42180601
-0.30000001 1 0.42180601
-0.29423559 0.94147289 0.42180601
-0.27716386 0.88519496 0.42180601
-0.24944089 0.83332896 0.42180601
-0.21213204 0.78786796 0.42180601
-0.16667107 0.75055909 0.42180601
-0.11480505 0.72283614 0.42180601
-0.058527093 0.70576441 0.42180601
2.6226834e-08 0.69999999 0.42180601
0.058527078 0.70576441 0.42180601
0.11480504 0.72283614 0.42180601
0.1666711 0.75055915 0.42180601
0.21213202 0.7878679 0.42180601
0.24944083 0.83332884 0.42180601
0.27716386 0.8851949 0.42180601
0.29423559 0.94147289 0.42180601
0.30000001 1 0.42180601
0.29423559 1.0585271 0.42180601
0.27716383 1.1148051 0.42180601
0.24944092 1.166671 0.42180601
0.21213208 1.212132 0.42180601
0.1666711 1.2494409 0.42180601
0.11480504 1.2771639 0.42180601
0.058527075 1.2942356 0.42180601
0 1.25 0.42180601
-0.048772581 1.2451963 0.42180601
-0.095670864 1.2309699 0.42180601
-0.13889256 1.2078674 0.42180601
-0.17677671 1.1767766 0.42180601
-0.20786741 1.1388925 0.42180601
-0.23096989 1.0956708 0.42180601
-0.24519633 1.0487726 0.42180601
-0.25 1 0.42180601
-0.24519633 0.95122743 0.42180601
-0.23096991 0.90432918 0.42180601
-0.20786743 0.86110747 0.42180601
-0.17677671 0.82322329 0.42180601
-0.13889255 0.79213256 0.42180601
-0.095670871 0.76903009 0.42180601
-0.048772577 0.75480366 0.42180601
2.1855696e-08 0.75 0.42180601
0.048772562 0.75480366 0.42180601
0.095670857 0.76903009 0.42180601
0.13889258 0.79213262 0.42180601
0.17677669 0.82322329 0.42180601
0.20786738 0.86110741 0.42180601
0.23096989 0.90432912 0.42180601
0.24519633 0.95122743 0.42180601
0.25 1 0.42180601
0.24519633 1.0487726 0.42180601
0.23096988 1.0956709 0.42180601
0.20786744 1.1388925 0.42180601
0.17677672 1.1767766 0.42180601
0.13889258 1.2078674 0.42180601
0.095670857 1.2309699 0.42180601
0.048772559 1.2451963 0.42180601
0 1.2 0.42180601
-0.039018068 1.1961571 0.42180601
-0.0765367 1.1847759 0.42180601
-0.11111405 1.166294 0.42180601
-0.14142136 1.1414213 0.42180601
-0.16629393 1.111114 0.42180601
-0.18477592 1.0765367 0.42180601
-0.19615707 1.039018 0.42180601
-0.20000002 1 0.42180601
-0.19615707 0.96098191 0.42180601
-0.18477593 0.92346334 0.42180601
-0.16629393 0.88888597 0.42180601
-0.14142136 0.85857862 0.42180601
-0.11111404 0.83370608 0.42180601
-0.076536708 0.81522405 0.42180601
-0.039018065 0.8038429 0.42180601
1.7484556e-08 0.79999995 0.42180601
0.039018054 0.8038429 0.42180601
0.076536693 0.81522405 0.42180601
0.11111407 0.83370608 0.42180601
0.14142135 0.85857862 0.42180601
0.1662939 0.88888592 0.42180601
0.18477592 0.92346328 0.42180601
0.19615707 0.96098191 0.42180601
0.20000002 1 0.42180601
0.19615707 1.039018 0.42180601
0.1847759 1.0765368 0.42180601
0.16629395 1.111114 0.42180601
0.14142139 1.1414213 0.42180601
0.11111407 1.166294 0.42180601
0.076536693 1.1847759 0.42180601
0.03901805 1.1961571 0.42180601
0 1.15 0.42180601
-0.029263549 1.1471179 0.42180601
-0.057402521 1.138582 0.42180601
-0.083335541 1.1247205 0.42180601
-0.10606602 1.106066 0.42180601
-0.12472045 1.0833355 0.42180601
-0.13858193 1.0574025 0.42180601
-0.14711779 1.0292635 0.42180601
-0.15000001 1 0.42180601
-0.14711779 0.97073644 0.42180601
-0.13858193 0.94259751 0.42180601
-0.12472045 0.91666448 0.42180601
-0.10606602 0.89393401 0.42180601
-0.083335534 0.87527955 0.42180601
-0.057402525 0.86141807 0.42180601
-0.029263547 0.85288221 0.42180601
1.3113417e-08 0.85000002 0.42180601
0.029263539 0.85288221 0.42180601
0.057402518 0.86141807 0.42180601
0.083335549 0.87527955 0.42180601
0.10606601 0.89393395 0.42180601
0.12472042 0.91666442 0.42180601
0.13858193 0.94259745 0.42180601
0.14711779 0.97073644 0.42180601
0.15000001 1 0.42180601
0.14711779 1.0292636 0.42180601
0.13858192 1.0574025 0.42180601
0.12472046 1.0833355 0.42180601
0.10606604 1.106066 0.42180601
0.083335549 1.1247205 0.42180601
0.057402518 1.138582 0.42180601
0.029263537 1.1471179 0.42180601
0 1.1 0.42180601
-0.019509034 1.0980785 0.42180601
-0.03826835 1.0923879 0.42180601
-0.055557027 1.0831469 0.42180601
-0.070710681 1.0707107 0.42180601
-0.083146967 1.055557 0.42180601
-0.092387959 1.0382683 0.42180601
-0.098078534 1.0195091 0.42180601
-0.10000001 1 0.42180601
-0.098078534 0.98049098 0.42180601
-0.092387967 0.96173167 0.42180601
-0.083146967 0.94444299 0.42180601
-0.070710681 0.92928934 0.42180601
-0.05555702 0.91685301 0.42180601
-0.038268354 0.90761203 0.42180601
-0.019509032 0.90192145 0.42180601
8.742278e-09 0.89999998 0.42180601
0.019509027 0.90192145 0.42180601
0.038268346 0.90761203 0.42180601
0.055557035 0.91685307 0.42180601
0.070710674 0.92928934 0.42180601
0.083146952 0.94444293 0.42180601
0.092387959 0.96173161 0.42180601
0.098078534 0.98049098 0.42180601
0.10000001 1 0.42180601
0.098078534 1.0195091 0.42180601
0.092387952 1.0382683 0.42180601
0.083146974 1.055557 0.42180601
0.070710696 1.0707107 0.42180601
0.055557035 1.0831469 0.42180601
0.038268346 1.0923879 0.42180601
0.019509025 1.0980785 0.42180601
0 1.05 0.42180601
-0.0097545171 1.0490392 0.42180601
-0.019134175 1.046194 0.42180601
-0.027778514 1.0415735 0.42180601
-0.035355341 1.0353553 0.42180601
-0.041573483 1.0277785 0.42180601
-0.04619398 1.0191342 0.42180601
-0.049039267 1.0097545 0.42180601
-0.050000004 1 0.42180601
-0.049039267 0.99024546 0.42180601
-0.046193983 0.98086584 0.42180601
-0.041573483 0.97222149 0.42180601
-0.035355341 0.96464467 0.42180601
-0.02777851 0.95842654 0.42180601
-0.019134177 0.95380604 0.42180601
-0.0097545162 0.95096076 0.42180601
4.371139e-09 0.94999999 0.42180601
0.0097545134 0.95096076 0.42180601
0.019134173 0.95380604 0.42180601
0.027778517 0.95842654 0.42180601
0.035355337 0.96464467 0.42180601
0.041573476 0.97222149 0.42180601
0.04619398 0.98086584 0.42180601
0.049039267 0.99024546 0.42180601
0.050000004 1 0.42180601
0.049039267 1.0097545 0.42180601
0.046193976 1.0191342 0.42180601
0.041573487 1.0277785 0.42180601
0.035355348 1.0353553 0.42180601
0.027778517 1.0415735 0.42180601
0.019134173 1.046194 0.42180601
0.0097545125 1.0490392 0.42180601
0 1.9000001 0.0028645694
-0.17558129 1.8827068 0.0028645694
-0.50001323 1.7483226 0.0028645694
-0.63639611 1.6363962 0.0028645694
-0.88270676 1.1755813 0.0028645694
-0.90000004 0.99999994 0.0028645694
7.86805e-08 0.099999964 0.0028645694
0.90000004 1 0.0028645694
0.88270676 1.1755813 0.0028645694
0.17558122 1.8827069 0.0028645694
-0.36354929 1.8776855 0.0028645694
-0.67175144 1.6717515 0.0028645694
-0.78989613 1.5277917 0.0028645694
-0.87768555 0.63645077 0.0028645694
0.36354926 0.12231445 0.0028645694
0.5277918 0.21010393 0.0028645694
0.67175138 0.3282485 0.0028645694
0.87768555 0.63645065 0.0028645694
0.19509032 1.9807854 0.021806031
0.92387956 1.3826834 0.0018060505
0.92387956 1.3826834 0.021806031
0.98078531 1.1950903 0.021806031
1 0.99999994 0.021806031
0.98078531 0.80490971 0.021806031
0.92387962 0.6173166 0.0018060505
0.92387962 0.6173166 0.021806031
0.83146971 0.44442981 0.0018060505
0.83146971 0.44442981 0.021806031
0.70710683 0.29289317 0.021806031
0.55557019 0.16853029 0.021806031
0.38268349 0.076120436 0.021806031
0.19509031 0.01921469 0.021806031
-8.7422784e-08 0 0.021806031
-0.19509025 0.01921469 0.021806031
-0.92387956 0.61731642 0.0018060505
-0.92387956 0.61731642 0.021806031
-0.98078531 0.80490959 0.021806031
-1 1 0.021806031
-0.98078531 1.1950904 0.021806031
-0.9238795 1.3826836 0.0018060505
-0.9238795 1.3826836 0.021806031
-0.83146977 1.5555701 0.0018060505
-0.83146977 1.5555701 0.021806031
-0.70710689 1.7071067 0.021806031
-0.5555703 1.8314697 0.021806031
-0.38268343 1.9238796 0.021806031
-0.19509023 1.9807854 0.021806031
0 2 0.026806027
0 2 0.046806008
0.19509032 1.9807854 0.026806027
0.19509032 1.9807854 0.046806008
0.92387956 1.3826834 0.026806027
0.92387956 1.3826834 0.046806008
0.98078531 1.1950903 0.026806027
0.98078531 1.1950903 0.046806008
1 0.99999994 0.026806027
1 0.99999994 0.046806008
0.98078531 0.80490971 0.026806027
0.98078531 0.80490971 0.046806008
0.92387962 0.6173166 0.026806027
0.92387962 0.6173166 0.046806008
0.83146971 0.44442981 0.026806027
0.83146971 0.44442981 0.046806008
0.70710683 0.29289317 0.026806027
0.70710683 0.29289317 0.046806008
0.55557019 0.16853029 0.026806027
0.55557019 0.16853029 0.046806008
0.38268349 0.076120436 0.026806027
0.38268349 0.076120436 0.046806008
0.19509031 0.01921469 0.026806027
0.19509031 0.01921469 0.046806008
-8.7422784e-08 0 0.026806027
-8.7422784e-08 0 0.046806008
-0.19509025 0.01921469 0.026806027
-0.19509025 0.01921469 0.046806008
-0.92387956 0.61731642 0.026806027
-0.92387956 0.61731642 0.046806008
-0.98078531 0.80490959 0.026806027
-0.98078531 0.80490959 0.046806008
-1 1 0.026806027
-1 1 0.046806008
-0.98078531 1.1950904 0.026806027
-0.98078531 1.1950904 0.046806008
-0.9238795 1.3826836 0.026806027
-0.9238795 1.3826836 0.046806008
-0.83146977 1.5555701 0.026806027
-0.83146977 1.5555701 0.046806008
-0.70710689 1.7071067 0.026806027
-0.70710689 1.7071067 0.046806008
-0.5555703 1.8314697 0.026806027
-0.5555703 1.8314697 0.046806008
-0.38268343 1.9238796 0.026806027
-0.38268343 1.9238796 0.046806008
-0.19509023 1.9807854 0.026806027
-0.19509023 1.9807854 0.046806008
0 2 0.051806003
0 2 0.071805984
0.19509032 1.9807854 0.051806003
0.19509032 1.9807854 0.071805984
0.92387956 1.3826834 0.051806003
0.92387956 1.3826834 0.071805984
0.98078531 1.1950903 0.051806003
0.98078531 1.1950903 0.071805984
1 0.99999994 0.051806003
1 0.99999994 0.071805984
0.98078531 0.80490971 0.051806003
0.98078531 0.80490971 0.071805984
0.92387962 0.6173166 0.051806003
0.92387962 0.6173166 0.071805984
0.83146971 0.44442981 0.051806003
0.83146971 0.44442981 0.071805984
0.70710683 0.29289317 0.051806003
0.70710683 0.29289317 0.071805984
0.55557019 0.16853029 0.051806003
0.55557019 0.16853029 0.071805984
0.38268349 0.076120436 0.051806003
0.38268349 0.076120436 0.071805984
0.19509031 0.01921469 0.051806003
0.19509031 0.01921469 0.071805984
-8.7422784e-08 0 0.051806003
-8.7422784e-08 0 0.071805984
-0.19509025 0.01921469 0.051806003
-0.19509025 0.01921469 0.071805984
-0.92387956 0.61731642 0.051806003
-0.92387956 0.61731642 0.071805984
-0.98078531 0.80490959 0.051806003
-0.98078531 0.80490959 0.071805984
-1 1 0.051806003
-1 1 0.071805984
-0.98078531 1.1950904 0.051806003
-0.98078531 1.1950904 0.071805984
-0.9238795 1.3826836 0.051806003
-0.9238795 1.3826836 0.071805984
-0.83146977 1.5555701 0.051806003
-0.83146977 1.5555701 0.071805984
-0.70710689 1.7071067 0.051806003
-0.70710689 1.7071067 0.071805984
-0.5555703 1.8314697 0.051806003
-0.5555703 1.8314697 0.071805984
-0.38268343 1.9238796 0.051806003
-0.38268343 1.9238796 0.071805984
-0.19509023 1.9807854 0.051806003
-0.19509023 1.9807854 0.071805984
0 2 0.076806098
0 2 0.096806079
0.19509032 1.9807854 0.076806098
0.19509032 1.9807854 0.096806079
0.92387956 1.3826834 0.076806098
0.92387956 1.3826834 0.096806079
0.98078531 1.1950903 0.076806098
0.98078531 1.1950903 0.096806079
1 0.99999994 0.076806098
1 0.99999994 0.096806079
0.98078531 0.80490971 0.076806098
0.98078531 0.80490971 0.096806079
0.92387962 0.6173166 0.076806098
0.92387962 0.6173166 0.096806079
0.83146971 0.44442981 0.076806098
0.83146971 0.44442981 0.096806079
0.70710683 0.29289317 0.076806098
0.70710683 0.29289317 0.096806079
0.55557019 0.16853029 0.076806098
0.55557019 0.16853029 0.096806079
0.38268349 0.076120436 0.076806098
0.38268349 0.076120436 0.096806079
0.19509031 0.01921469 0.076806098
0.19509031 0.01921469 0.096806079
-8.7422784e-08 0 0.076806098
-8.7422784e-08 0 0.096806079
-0.19509025 0.01921469 0.076806098
-0.19509025 0.01921469 0.096806079
-0.92387956 0.61731642 0.076806098
-0.92387956 0.61731642 0.096806079
-0.98078531 0.80490959 0.076806098
-0.98078531 0.80490959 0.096806079
-1 1 0.076806098
-1 1 0.096806079
-0.98078531 1.1950904 0.076806098
-0.98078531 1.1950904 0.096806079
-0.9238795 1.3826836 0.076806098
-0.9238795 1.3826836 0.096806079
-0.83146977 1.5555701 0.076806098
-0.83146977 1.5555701 0.096806079
-0.70710689 1.7071067 0.076806098
-0.70710689 1.7071067 0.096806079
-0.5555703 1.8314697 0.076806098
-0.5555703 1.8314697 0.096806079
-0.38268343 1.9238796 0.076806098
-0.38268343 1.9238796 0.096806079
-0.19509023 1.9807854 0.076806098
-0.19509023 1.9807854 0.096806079
0 2 0.10180607
0 2 0.12180606
0.19509032 1.9807854 0.10180607
0.19509032 1.9807854 0.12180606
0.92387956 1.3826834 0.10180607
0.92387956 1.3826834 0.12180606
0.98078531 1.1950903 0.10180607
0.98078531 1.1950903 0.12180606
1 0.99999994 0.10180607
1 0.99999994 0.12180606
0.98078531 0.80490971 0.10180607
0.98078531 0.80490971 0.12180606
0.92387962 0.6173166 0.10180607
0.92387962 0.6173166 0.12180606
0.83146971 0.44442981 0.10180607
0.83146971 0.44442981 0.12180606
0.70710683 0.29289317 0.10180607
0.70710683 0.29289317 0.12180606
0.55557019 0.16853029 0.10180607
0.55557019 0.16853029 0.12180606
0.38268349 0.076120436 0.10180607
0.38268349 0.076120436 0.12180606
0.19509031 0.01921469 0.10180607
0.19509031 0.01921469 0.12180606
-8.7422784e-08 0 0.10180607
-8.7422784e-08 0 0.12180606
-0.19509025 0.01921469 0.10180607
-0.19509025 0.01921469 0.12180606
-0.92387956 0.61731642 0.10180607
-0.92387956 0.61731642 0.12180606
-0.98078531 0.80490959 0.10180607
-0.98078531 0.80490959 0.12180606
-1 1 0.10180607
-1 1 0.12180606
-0.98078531 1.1950904 0.10180607
-0.98078531 1.1950904 0.12180606
-0.9238795 1.3826836 0.10180607
-0.9238795 1.3826836 0.12180606
-0.83146977 1.5555701 0.10180607
-0.83146977 1.5555701 0.12180606
-0.70710689 1.7071067 0.10180607
-0.70710689 1.7071067 0.12180606
-0.5555703 1.8314697 0.10180607
-0.5555703 1.8314697 0.12180606
-0.38268343 1.9238796 0.10180607
-0.38268343 1.9238796 0.12180606
-0.19509023 1.9807854 0.10180607
-0.19509023 1.9807854 0.12180606
0 2 0.12680605
0 2 0.14680603
0.19509032 1.9807854 0.12680605
0.19509032 1.9807854 0.14680603
0.38268346 1.9238796 0.14680603
0.83146966 1.5555702 0.14680603
0.92387956 1.3826834 0.12680605
0.92387956 1.3826834 0.14680603
0.98078531 1.1950903 0.12680605
0.98078531 1.1950903 0.14680603
1 0.99999994 0.12680605
1 0.99999994 0.14680603
0.98078531 0.80490971 0.12680605
0.98078531 0.80490971 0.14680603
0.92387962 0.6173166 0.12680605
0.92387962 0.6173166 0.14680603
0.83146971 0.44442981 0.12680605
0.83146971 0.44442981 0.14680603
0.70710683 0.29289317 0.12680605
0.70710683 0.29289317 0.14680603
0.55557019 0.16853029 0.12680605
0.55557019 0.16853029 0.14680603
0.38268349 0.076120436 0.12680605
0.38268349 0.076120436 0.14680603
0.19509031 0.01921469 0.12680605
0.19509031 0.01921469 0.14680603
-8.7422784e-08 0 0.12680605
-8.7422784e-08 0 0.14680603
-0.19509025 0.01921469 0.12680605
-0.19509025 0.01921469 0.14680603
-0.92387956 0.61731642 0.12680605
-0.92387956 0.61731642 0.14680603
-0.98078531 0.80490959 0.12680605
-0.98078531 0.80490959 0.14680603
-1 1 0.12680605
-1 1 0.14680603
-0.98078531 1.1950904 0.12680605
-0.98078531 1.1950904 0.14680603
-0.9238795 1.3826836 0.12680605
-0.9238795 1.3826836 0.14680603
-0.83146977 1.5555701 0.12680605
-0.83146977 1.5555701 0.14680603
-0.70710689 1.7071067 0.12680605
-0.70710689 1.7071067 0.14680603
-0.5555703 1.8314697 0.12680605
-0.5555703 1.8314697 0.14680603
-0.38268343 1.9238796 0.12680605
-0.38268343 1.9238796 0.14680603
-0.19509023 1.9807854 0.12680605
-0.19509023 1.9807854 0.14680603
0 2 0.15180603
0 2 0.17180602
0.19509032 1.9807854 0.15180603
0.19509032 1.9807854 0.17180602
0.38268346 1.9238796 0.15180603
0.38268346 1.9238796 0.17180602
0.83146966 1.5555702 0.15180603
0.83146966 1.5555702 0.17180602
0.92387956 1.3826834 0.15180603
0.92387956 1.3826834 0.17180602
0.98078531 1.1950903 0.15180603
0.98078531 1.1950903 0.17180602
1 0.99999994 0.15180603
1 0.99999994 0.17180602
0.98078531 0.80490971 0.15180603
0.98078531 0.80490971 0.17180602
0.92387962 0.6173166 0.15180603
0.92387962 0.6173166 0.17180602
0.83146971 0.44442981 0.15180603
0.83146971 0.44442981 0.17180602
0.70710683 0.29289317 0.15180603
0.70710683 0.29289317 0.17180602
0.55557019 0.16853029 0.15180603
0.55557019 0.16853029 0.17180602
0.38268349 0.076120436 0.15180603
0.38268349 0.076120436 0.17180602
0.19509031 0.01921469 0.15180603
0.19509031 0.01921469 0.17180602
-8.7422784e-08 0 0.15180603
-8.7422784e-08 0 0.17180602
-0.19509025 0.01921469 0.15180603
-0.19509025 0.01921469 0.17180602
-0.92387956 0.61731642 0.15180603
-0.92387956 0.61731642 0.17180602
-0.98078531 0.80490959 0.15180603
-0.98078531 0.80490959 0.17180602
-1 1 0.15180603
-1 1 0.17180602
-0.98078531 1.1950904 0.15180603
-0.98078531 1.1950904 0.17180602
-0.9238795 1.3826836 0.15180603
-0.9238795 1.3826836 0.17180602
-0.83146977 1.5555701 0.15180603
-0.83146977 1.5555701 0.17180602
-0.70710689 1.7071067 0.15180603
-0.70710689 1.7071067 0.17180602
-0.5555703 1.8314697 0.15180603
-0.5555703 1.8314697 0.17180602
-0.38268343 1.9238796 0.15180603
-0.38268343 1.9238796 0.17180602
-0.19509023 1.9807854 0.15180603
-0.19509023 1.9807854 0.17180602
0 2 0.17680599
0 2 0.196806
0.19509032 1.9807854 0.17680599
0.19509032 1.9807854 0.196806
0.38268346 1.9238796 0.17680599
0.38268346 1.9238796 0.196806
0.83146966 1.5555702 0.17680599
0.83146966 1.5555702 0.196806
0.92387956 1.3826834 0.17680599
0.92387956 1.3826834 0.196806
0.98078531 1.1950903 0.17680599
0.98078531 1.1950903 0.196806
1 0.99999994 0.17680599
1 0.99999994 0.196806
0.98078531 0.80490971 0.17680599
0.98078531 0.80490971 0.196806
0.92387962 0.6173166 0.17680599
0.92387962 0.6173166 0.196806
0.83146971 0.44442981 0.17680599
0.83146971 0.44442981 0.196806
0.70710683 0.29289317 0.17680599
0.70710683 0.29289317 0.196806
0.55557019 0.16853029 0.17680599
0.55557019 0.16853029 0.196806
0.38268349 0.076120436 0.17680599
0.38268349 0.076120436 0.196806
0.19509031 0.01921469 0.17680599
0.19509031 0.01921469 0.196806
-8.7422784e-08 0 0.17680599
-8.7422784e-08 0 0.196806
-0.19509025 0.01921469 0.17680599
-0.19509025 0.01921469 0.196806
-0.38268343 0.076120436 0.196806
-0.83146954 0.44442958 0.196806
-0.92387956 0.61731642 0.17680599
-0.92387956 0.61731642 0.196806
-0.98078531 0.80490959 0.17680599
-0.98078531 0.80490959 0.196806
-1 1 0.17680599
-1 1 0.196806
-0.98078531 1.1950904 0.17680599
-0.98078531 1.1950904 0.196806
-0.9238795 1.3826836 0.17680599
-0.9238795 1.3826836 0.196806
-0.83146977 1.5555701 0.17680599
-0.83146977 1.5555701 0.196806
-0.70710689 1.7071067 0.17680599
-0.70710689 1.7071067 0.196806
-0.5555703 1.8314697 0.17680599
-0.5555703 1.8314697 0.196806
-0.38268343 1.9238796 0.17680599
-0.38268343 1.9238796 0.196806
-0.19509023 1.9807854 0.17680599
-0.19509023 1.9807854 0.196806
0 2 0.20180608
0 2 0.22180609
0.19509032 1.9807854 0.20180608
0.19509032 1.9807854 0.22180609
0.38268346 1.9238796 0.20180608
0.38268346 1.9238796 0.22180609
0.83146966 1.5555702 0.20180608
0.83146966 1.5555702 0.22180609
0.92387956 1.3826834 0.20180608
0.92387956 1.3826834 0.22180609
0.98078531 1.1950903 0.20180608
0.98078531 1.1950903 0.22180609
1 0.99999994 0.20180608
1 0.99999994 0.22180609
0.98078531 0.80490971 0.20180608
0.98078531 0.80490971 0.22180609
0.92387962 0.6173166 0.20180608
0.92387962 0.6173166 0.22180609
0.83146971 0.44442981 0.20180608
0.83146971 0.44442981 0.22180609
0.70710683 0.29289317 0.20180608
0.70710683 0.29289317 0.22180609
0.55557019 0.16853029 0.20180608
0.55557019 0.16853029 0.22180609
0.38268349 0.076120436 0.20180608
0.38268349 0.076120436 0.22180609
0.19509031 0.01921469 0.20180608
0.19509031 0.01921469 0.22180609
-8.7422784e-08 0 0.20180608
-8.7422784e-08 0 0.22180609
-0.19509025 0.01921469 0.20180608
-0.19509025 0.01921469 0.22180609
-0.38268343 0.076120436 0.20180608
-0.38268343 0.076120436 0.22180609
-0.83146954 0.44442958 0.20180608
-0.83146954 0.44442958 0.22180609
-0.92387956 0.61731642 0.20180608
-0.92387956 0.61731642 0.22180609
-0.98078531 0.80490959 0.20180608
-0.98078531 0.80490959 0.22180609
-1 1 0.20180608
-1 1 0.22180609
-0.98078531 1.1950904 0.20180608
-0.98078531 1.1950904 0.22180609
-0.9238795 1.3826836 0.20180608
-0.9238795 1.3826836 0.22180609
-0.83146977 1.5555701 0.20180608
-0.83146977 1.5555701 0.22180609
-0.70710689 1.7071067 0.20180608
-0.70710689 1.7071067 0.22180609
-0.5555703 1.8314697 0.20180608
-0.5555703 1.8314697 0.22180609
-0.38268343 1.9238796 0.20180608
-0.38268343 1.9238796 0.22180609
-0.19509023 1.9807854 0.20180608
-0.19509023 1.9807854 0.22180609
0 2 0.22680606
0 2 0.24680607
0.19509032 1.9807854 0.22680606
0.19509032 1.9807854 0.24680607
0.38268346 1.9238796 0.22680606
0.38268346 1.9238796 0.24680607
0.83146966 1.5555702 0.22680606
0.83146966 1.5555702 0.24680607
0.92387956 1.3826834 0.22680606
0.92387956 1.3826834 0.24680607
0.98078531 1.1950903 0.22680606
0.98078531 1.1950903 0.24680607
1 0.99999994 0.22680606
1 0.99999994 0.24680607
0.98078531 0.80490971 0.22680606
0.98078531 0.80490971 0.24680607
0.92387962 0.6173166 0.22680606
0.92387962 0.6173166 0.24680607
0.83146971 0.44442981 0.22680606
0.83146971 0.44442981 0.24680607
0.70710683 0.29289317 0.22680606
0.70710683 0.29289317 0.24680607
0.55557019 0.16853029 0.22680606
0.55557019 0.16853029 0.24680607
0.38268349 0.076120436 0.22680606
0.38268349 0.076120436 0.24680607
0.19509031 0.01921469 0.22680606
0.19509031 0.01921469 0.24680607
-8.7422784e-08 0 0.22680606
-8.7422784e-08 0 0.24680607
-0.19509025 0.01921469 0.22680606
-0.19509025 0.01921469 0.24680607
-0.38268343 0.076120436 0.22680606
-0.38268343 0.076120436 0.24680607
-0.83146954 0.44442958 0.22680606
-0.83146954 0.44442958 0.24680607
-0.92387956 0.61731642 0.22680606
-0.92387956 0.61731642 0.24680607
-0.98078531 0.80490959 0.22680606
-0.98078531 0.80490959 0.24680607
-1 1 0.22680606
-1 1 0.24680607
-0.98078531 1.1950904 0.22680606
-0.98078531 1.1950904 0.24680607
-0.9238795 1.3826836 0.22680606
-0.9238795 1.3826836 0.24680607
-0.83146977 1.5555701 0.22680606
-0.83146977 1.5555701 0.24680607
-0.70710689 1.7071067 0.22680606
-0.70710689 1.7071067 0.24680607
-0.5555703 1.8314697 0.22680606
-0.5555703 1.8314697 0.24680607
-0.38268343 1.9238796 0.22680606
-0.38268343 1.9238796 0.24680607
-0.19509023 1.9807854 0.22680606
-0.19509023 1.9807854 0.24680607
0 2 0.25180602
0 2 0.27180606
0.19509032 1.9807854 0.25180602
0.19509032 1.9807854 0.27180606
0.38268346 1.9238796 0.25180602
0.38268346 1.9238796 0.27180606
0.55557024 1.8314697 0.27180606
0.70710683 1.7071068 0.27180606
0.83146966 1.5555702 0.25180602
0.83146966 1.5555702 0.27180606
0.92387956 1.3826834 0.25180602
0.92387956 1.3826834 0.27180606
0.98078531 1.1950903 0.25180602
0.98078531 1.1950903 0.27180606
1 0.99999994 0.25180602
1 0.99999994 0.27180606
0.98078531 0.80490971 0.25180602
0.98078531 0.80490971 0.27180606
0.92387962 0.6173166 0.25180602
0.92387962 0.6173166 0.27180606
0.83146971 0.44442981 0.25180602
0.83146971 0.44442981 0.27180606
0.70710683 0.29289317 0.25180602
0.70710683 0.29289317 0.27180606
0.55557019 0.16853029 0.25180602
0.55557019 0.16853029 0.27180606
0.38268349 0.076120436 0.25180602
0.38268349 0.076120436 0.27180606
0.19509031 0.01921469 0.25180602
0.19509031 0.01921469 0.27180606
-8.7422784e-08 0 0.25180602
-8.7422784e-08 0 0.27180606
-0.19509025 0.01921469 0.25180602
-0.19509025 0.01921469 0.27180606
-0.38268343 0.076120436 0.25180602
-0.38268343 0.076120436 0.27180606
-0.83146954 0.44442958 0.25180602
-0.83146954 0.44442958 0.27180606
-0.92387956 0.61731642 0.25180602
-0.92387956 0.61731642 0.27180606
-0.98078531 0.80490959 0.25180602
-0.98078531 0.80490959 0.27180606
-1 1 0.25180602
-1 1 0.27180606
-0.98078531 1.1950904 0.25180602
-0.98078531 1.1950904 0.27180606
-0.9238795 1.3826836 0.25180602
-0.9238795 1.3826836 0.27180606
-0.83146977 1.5555701 0.25180602
-0.83146977 1.5555701 0.27180606
-0.70710689 1.7071067 0.25180602
-0.70710689 1.7071067 0.27180606
-0.5555703 1.8314697 0.25180602
-0.5555703 1.8314697 0.27180606
-0.38268343 1.9238796 0.25180602
-0.38268343 1.9238796 0.27180606
-0.19509023 1.9807854 0.25180602
-0.19509023 1.9807854 0.27180606
0 2 0.276806
0 2 0.29680601
0.19509032 1.9807854 0.276806
0.19509032 1.9807854 0.29680601
0.38268346 1.9238796 0.276806
0.38268346 1.9238796 0.29680601
0.55557024 1.8314697 0.276806
0.55557024 1.8314697 0.29680601
0.70710683 1.7071068 0.276806
0.70710683 1.7071068 0.29680601
0.83146966 1.5555702 0.276806
0.83146966 1.5555702 0.29680601
0.92387956 1.3826834 0.276806
0.92387956 1.3826834 0.29680601
0.98078531 1.1950903 0.276806
0.98078531 1.1950903 0.29680601
1 0.99999994 0.276806
1 0.99999994 0.29680601
0.98078531 0.80490971 0.276806
0.98078531 0.80490971 0.29680601
0.92387962 0.6173166 0.276806
0.92387962 0.6173166 0.29680601
0.83146971 0.44442981 0.276806
0.83146971 0.44442981 0.29680601
0.70710683 0.29289317 0.276806
0.70710683 0.29289317 0.29680601
0.55557019 0.16853029 0.276806
0.55557019 0.16853029 0.29680601
0.38268349 0.076120436 0.276806
0.38268349 0.076120436 0.29680601
0.19509031 0.01921469 0.276806
0.19509031 0.01921469 0.29680601
-8.7422784e-08 0 0.276806
-8.7422784e-08 0 0.29680601
-0.19509025 0.01921469 0.276806
-0.19509025 0.01921469 0.29680601
-0.38268343 0.076120436 0.276806
-0.38268343 0.076120436 0.29680601
-0.83146954 0.44442958 0.276806
-0.83146954 0.44442958 0.29680601
-0.92387956 0.61731642 0.276806
-0.92387956 0.61731642 0.29680601
-0.98078531 0.80490959 0.276806
-0.98078531 0.80490959 0.29680601
-1 1 0.276806
-1 1 0.29680601
-0.98078531 1.1950904 0.276806
-0.98078531 1.1950904 0.29680601
-0.9238795 1.3826836 0.276806
-0.9238795 1.3826836 0.29680601
-0.83146977 1.5555701 0.276806
-0.83146977 1.5555701 0.29680601
-0.70710689 1.7071067 0.276806
-0.70710689 1.7071067 0.29680601
-0.5555703 1.8314697 0.276806
-0.5555703 1.8314697 0.29680601
-0.38268343 1.9238796 0.276806
-0.38268343 1.9238796 0.29680601
-0.19509023 1.9807854 0.276806
-0.19509023 1.9807854 0.29680601
0 1.9999998 0.301806
0 1.9999998 0.32180598
0.19509032 1.9807849 0.301806
0.19509032 1.9807849 0.32180598
0.38268346 1.9238791 0.301806
0.38268346 1.9238791 0.32180598
0.55557024 1.8314693 0.301806
0.55557024 1.8314693 0.32180598
0.70710683 1.7071065 0.301806
0.70710683 1.7071065 0.32180598
0.83146966 1.5555699 0.301806
0.83146966 1.5555699 0.32180598
0.92387956 1.382683 0.301806
0.92387956 1.382683 0.32180598
0.98078531 1.1950901 0.301806
0.98078531 1.1950901 0.32180598
1 0.99999964 0.301806
1 0.99999964 0.32180598
0.98078531 0.80490935 0.301806
0.98078531 0.80490935 0.32180598
0.92387962 0.61731625 0.301806
0.92387962 0.61731625 0.32180598
0.83146971 0.44442946 0.301806
0.83146971 0.44442946 0.32180598
0.70710683 0.29289287 0.301806
0.70710683 0.29289287 0.32180598
0.55557019 0.16852999 0.301806
0.55557019 0.16852999 0.32180598
0.38268349 0.076120138 0.301806
0.38268349 0.076120138 0.32180598
0.19509031 0.019214332 0.301806
0.19509031 0.019214332 0.32180598
-8.7422784e-08 -3.5762787e-07 0.301806
-8.7422784e-08 -3.5762787e-07 0.32180598
-0.19509025 0.019214332 0.301806
-0.19509025 0.019214332 0.32180598
-0.38268343 0.076120138 0.301806
-0.38268343 0.076120138 0.32180598
-0.5555703 0.16853011 0.32180598
-0.70710677 0.29289281 0.32180598
-0.83146954 0.44442922 0.301806
-0.83146954 0.44442922 0.32180598
-0.92387956 0.61731613 0.301806
-0.92387956 0.61731613 0.32180598
-0.98078531 0.80490929 0.301806
-0.98078531 0.80490929 0.32180598
-1 0.9999997 0.301806
-1 0.9999997 0.32180598
-0.98078531 1.1950901 0.301806
-0.98078531 1.1950901 0.32180598
-0.9238795 1.3826833 0.301806
-0.9238795 1.3826833 0.32180598
-0.83146977 1.5555696 0.301806
-0.83146977 1.5555696 0.32180598
-0.70710689 1.7071064 0.301806
-0.70710689 1.7071064 0.32180598
-0.5555703 1.8314693 0.301806
-0.5555703 1.8314693 0.32180598
-0.38268343 1.9238793 0.301806
-0.38268343 1.9238793 0.32180598
-0.19509023 1.9807849 0.301806
-0.19509023 1.9807849 0.32180598
0 2 0.3268061
0 2 0.34680608
0.19509032 1.9807854 0.3268061
0.19509032 1.9807854 0.34680608
0.38268346 1.9238796 0.3268061
0.38268346 1.9238796 0.34680608
0.55557024 1.8314697 0.3268061
0.55557024 1.8314697 0.34680608
0.70710683 1.7071068 0.3268061
0.70710683 1.7071068 0.34680608
0.83146966 1.5555702 0.3268061
0.83146966 1.5555702 0.34680608
0.92387956 1.3826834 0.3268061
0.92387956 1.3826834 0.34680608
0.98078531 1.1950903 0.3268061
0.98078531 1.1950903 0.34680608
1 0.99999994 0.3268061
1 0.99999994 0.34680608
0.98078531 0.80490971 0.3268061
0.98078531 0.80490971 0.34680608
0.92387962 0.6173166 0.3268061
0.92387962 0.6173166 0.34680608
0.83146971 0.44442981 0.3268061
0.83146971 0.44442981 0.34680608
0.70710683 0.29289317 0.3268061
0.70710683 0.29289317 0.34680608
0.55557019 0.16853029 0.3268061
0.55557019 0.16853029 0.34680608
0.38268349 0.076120436 0.3268061
0.38268349 0.076120436 0.34680608
0.19509031 0.01921469 0.3268061
0.19509031 0.01921469 0.34680608
-8.7422784e-08 0 0.3268061
-8.7422784e-08 0 0.34680608
-0.19509025 0.01921469 0.3268061
-0.19509025 0.01921469 0.34680608
-0.38268343 0.076120436 0.3268061
-0.38268343 0.076120436 0.34680608
-0.5555703 0.1685304 0.3268061
-0.5555703 0.1685304 0.34680608
-0.70710677 0.29289317 0.3268061
-0.70710677 0.29289317 0.34680608
-0.83146954 0.44442958 0.3268061
-0.83146954 0.44442958 0.34680608
-0.92387956 0.61731642 0.3268061
-0.92387956 0.61731642 0.34680608
-0.98078531 0.80490959 0.3268061
-0.98078531 0.80490959 0.34680608
-1 1 0.3268061
-1 1 0.34680608
-0.98078531 1.1950904 0.3268061
-0.98078531 1.1950904 0.34680608
-0.9238795 1.3826836 0.3268061
-0.9238795 1.3826836 0.34680608
-0.83146977 1.5555701 0.3268061
-0.83146977 1.5555701 0.34680608
-0.70710689 1.7071067 0.3268061
-0.70710689 1.7071067 0.34680608
-0.5555703 1.8314697 0.3268061
-0.5555703 1.8314697 0.34680608
-0.38268343 1.9238796 0.3268061
-0.38268343 1.9238796 0.34680608
-0.19509023 1.9807854 0.3268061
-0.19509023 1.9807854 0.34680608
0 2 0.35180607
0 2 0.37180606
0.19509032 1.9807854 0.35180607
0.19509032 1.9807854 0.37180606
0.38268346 1.9238796 0.35180607
0.38268346 1.9238796 0.37180606
0.55557024 1.8314697 0.35180607
0.55557024 1.8314697 0.37180606
0.70710683 1.7071068 0.35180607
0.70710683 1.7071068 0.37180606
0.83146966 1.5555702 0.35180607
0.83146966 1.5555702 0.37180606
0.92387956 1.3826834 0.35180607
0.92387956 1.3826834 0.37180606
0.98078531 1.1950903 0.35180607
0.98078531 1.1950903 0.37180606
1 0.99999994 0.35180607
1 0.99999994 0.37180606
0.98078531 0.80490971 0.35180607
0.98078531 0.80490971 0.37180606
0.92387962 0.6173166 0.35180607
0.92387962 0.6173166 0.37180606
0.83146971 0.44442981 0.35180607
0.83146971 0.44442981 0.37180606
0.70710683 0.29289317 0.35180607
0.70710683 0.29289317 0.37180606
0.55557019 0.16853029 0.35180607
0.55557019 0.16853029 0.37180606
0.38268349 0.076120436 0.35180607
0.38268349 0.076120436 0.37180606
0.19509031 0.01921469 0.35180607
0.19509031 0.01921469 0.37180606
-8.7422784e-08 0 0.35180607
-8.7422784e-08 0 0.37180606
-0.19509025 0.01921469 0.35180607
-0.19509025 0.01921469 0.37180606
-0.38268343 0.076120436 0.35180607
-0.38268343 0.076120436 0.37180606
-0.5555703 0.1685304 0.35180607
-0.5555703 0.1685304 0.37180606
-0.70710677 0.29289317 0.35180607
-0.70710677 0.29289317 0.37180606
-0.83146954 0.44442958 0.35180607
-0.83146954 0.44442958 0.37180606
-0.92387956 0.61731642 0.35180607
-0.92387956 0.61731642 0.37180606
-0.98078531 0.80490959 0.35180607
-0.98078531 0.80490959 0.37180606
-1 1 0.35180607
-1 1 0.37180606
-0.98078531 1.1950904 0.35180607
-0.98078531 1.1950904 0.37180606
-0.9238795 1.3826836 0.35180607
-0.9238795 1.3826836 0.37180606
-0.83146977 1.5555701 0.35180607
-0.83146977 1.5555701 0.37180606
-0.70710689 1.7071067 0.35180607
-0.70710689 1.7071067 0.37180606
-0.5555703 1.8314697 0.35180607
-0.5555703 1.8314697 0.37180606
-0.38268343 1.9238796 0.35180607
-0.38268343 1.9238796 0.37180606
-0.19509023 1.9807854 0.35180607
-0.19509023 1.9807854 0.37180606
0 2 0.37680605
0 2 0.39680603
0.19509032 1.9807854 0.37680605
0.19509032 1.9807854 0.39680603
0.38268346 1.9238796 0.37680605
0.38268346 1.9238796 0.39680603
0.55557024 1.8314697 0.37680605
0.55557024 1.8314697 0.39680603
0.70710683 1.7071068 0.37680605
0.70710683 1.7071068 0.39680603
0.83146966 1.5555702 0.37680605
0.83146966 1.5555702 0.39680603
0.92387956 1.3826834 0.37680605
0.92387956 1.3826834 0.39680603
0.98078531 1.1950903 0.37680605
0.98078531 1.1950903 0.39680603
1 0.99999994 0.37680605
1 0.99999994 0.39680603
0.98078531 0.80490971 0.37680605
0.98078531 0.80490971 0.39680603
0.92387962 0.6173166 0.37680605
0.92387962 0.6173166 0.39680603
0.83146971 0.44442981 0.37680605
0.83146971 0.44442981 0.39680603
0.70710683 0.29289317 0.37680605
0.70710683 0.29289317 0.39680603
0.55557019 0.16853029 0.37680605
0.55557019 0.16853029 0.39680603
0.38268349 0.076120436 0.37680605
0.38268349 0.076120436 0.39680603
0.19509031 0.01921469 0.37680605
0.19509031 0.01921469 0.39680603
-8.7422784e-08 0 0.37680605
-8.7422784e-08 0 0.39680603
-0.19509025 0.01921469 0.37680605
-0.19509025 0.01921469 0.39680603
-0.38268343 0.076120436 0.37680605
-0.38268343 0.076120436 0.39680603
-0.5555703 0.1685304 0.37680605
-0.5555703 0.1685304 0.39680603
-0.70710677 0.29289317 0.37680605
-0.70710677 0.29289317 0.39680603
-0.83146954 0.44442958 0.37680605
-0.83146954 0.44442958 0.39680603
-0.92387956 0.61731642 0.37680605
-0.92387956 0.61731642 0.39680603
-0.98078531 0.80490959 0.37680605
-0.98078531 0.80490959 0.39680603
-1 1 0.37680605
-1 1 0.39680603
-0.98078531 1.1950904 0.37680605
-0.98078531 1.1950904 0.39680603
-0.9238795 1.3826836 0.37680605
-0.9238795 1.3826836 0.39680603
-0.83146977 1.5555701 0.37680605
-0.83146977 1.5555701 0.39680603
-0.70710689 1.7071067 0.37680605
-0.70710689 1.7071067 0.39680603
-0.5555703 1.8314697 0.37680605
-0.5555703 1.8314697 0.39680603
-0.38268343 1.9238796 0.37680605
-0.38268343 1.9238796 0.39680603
-0.19509023 1.9807854 0.37680605
-0.19509023 1.9807854 0.39680603
0 2 0.40180603
0 2 0.42180601
0.19509032 1.9807854 0.40180603
0.19509032 1.9807854 0.42180601
0.38268346 1.9238796 0.40180603
0.38268346 1.9238796 0.42180601
0.55557024 1.8314697 0.40180603
0.55557024 1.8314697 0.42180601
0.70710683 1.7071068 0.40180603
0.70710683 1.7071068 0.42180601
0.83146966 1.5555702 0.40180603
0.83146966 1.5555702 0.42180601
0.92387956 1.3826834 0.40180603
0.92387956 1.3826834 0.42180601
0.98078531 1.1950903 0.40180603
0.98078531 1.1950903 0.42180601
1 0.99999994 0.40180603
1 0.99999994 0.42180601
0.98078531 0.80490971 0.40180603
0.98078531 0.80490971 0.42180601
0.92387962 0.6173166 0.40180603
0.92387962 0.6173166 0.42180601
0.83146971 0.44442981 0.40180603
0.83146971 0.44442981 0.42180601
0.70710683 0.29289317 0.40180603
0.70710683 0.29289317 0.42180601
0.55557019 0.16853029 0.40180603
0.55557019 0.16853029 0.42180601
0.38268349 0.076120436 0.40180603
0.38268349 0.076120436 0.42180601
0.19509031 0.01921469 0.40180603
0.19509031 0.01921469 0.42180601
-8.7422784e-08 0 0.40180603
-8.7422784e-08 0 0.42180601
-0.19509025 0.01921469 0.40180603
-0.19509025 0.01921469 0.42180601
-0.38268343 0.076120436 0.40180603
-0.38268343 0.076120436 0.42180601
-0.5555703 0.1685304 0.40180603
-0.5555703 0.1685304 0.42180601
-0.70710677 0.29289317 0.40180603
-0.70710677 0.29289317 0.42180601
-0.83146954 0.44442958 0.40180603
-0.83146954 0.44442958 0.42180601
-0.92387956 0.61731642 0.40180603
-0.92387956 0.61731642 0.42180601
-0.98078531 0.80490959 0.40180603
-0.98078531 0.80490959 0.42180601
-1 1 0.40180603
-1 1 0.42180601
-0.98078531 1.1950904 0.40180603
-0.98078531 1.1950904 0.42180601
-0.9238795 1.3826836 0.40180603
